ply
format ascii 1.0
comment PCL generated
element vertex 1124
property float x
property float y
property float z
property uchar red
property uchar green
property uchar blue
element camera 0
property float view_px
property float view_py
property float view_pz
property float x_axisx
property float x_axisy
property float x_axisz
property float y_axisx
property float y_axisy
property float y_axisz
property float z_axisx
property float z_axisy
property float z_axisz
property float focal
property float scalex
property float scaley
property float centerx
property float centery
property int viewportx
property int viewporty
property float k1
property float k2
end_header
0.041071225 -0.54706055 2.1360002 32 32 14
0.046870749 -0.54654455 2.1340001 32 31 15
0.0526345 -0.54577184 2.131 36 33 17
0.058491439 -0.54602325 2.1320002 34 31 15
0.064353682 -0.54627407 2.1330001 30 29 13
0.070221223 -0.54652441 2.1340001 31 30 14
0.076058395 -0.54651809 2.1340001 32 31 15
0.081895366 -0.54651129 2.1340001 35 34 18
0.087937675 -0.54778463 2.1390002 36 36 18
0.093963243 -0.54880112 2.1430001 34 34 16
0.10001043 -0.5498172 2.1470001 36 35 19
0.10602993 -0.55057669 2.1500001 44 44 26
0.1122217 -0.552104 2.1560001 50 49 33
0.11855555 -0.55414283 2.164 55 53 35
0.12470277 -0.55515689 2.1680002 57 54 34
0.13069074 -0.55540216 2.1690001 111 103 76
-0.16538237 -0.55940336 2.1620002 130 128 86
-0.15999006 -0.56122798 2.1690001 110 108 76
-0.15377776 -0.56020606 2.1650002 42 41 19
-0.14758693 -0.55918348 2.161 32 32 14
-0.14148314 -0.55841917 2.158 29 31 13
-0.13539542 -0.5576545 2.1550002 35 35 17
-0.12920354 -0.55637163 2.1500001 34 33 17
-0.12303867 -0.5550884 2.1450002 30 29 13
-0.11717394 -0.55509859 2.1450002 29 28 12
-0.11125701 -0.55484939 2.1440001 32 31 15
-0.10544357 -0.55511737 2.1450002 29 28 12
-0.099485114 -0.5546084 2.1430001 27 26 10
-0.093581036 -0.55435789 2.1420002 27 26 10
-0.087764069 -0.55462438 2.1430001 29 28 12
-0.082017839 -0.55540812 2.1460001 29 31 14
-0.076219492 -0.55593246 2.148 30 29 13
-0.070442751 -0.55671513 2.151 29 29 11
-0.064649411 -0.55749744 2.154 30 30 12
-0.058866754 -0.55853796 2.158 29 29 11
-0.05303752 -0.55931938 2.161 29 29 11
-0.047257151 -0.56087667 2.1670001 28 30 12
-0.041481972 -0.56295103 2.1750002 27 29 12
-0.035646576 -0.56476623 2.1820002 29 31 14
-0.029772779 -0.56658083 2.1890001 26 30 13
-0.023838878 -0.56787729 2.194 25 26 12
-0.017853159 -0.56839675 2.1960001 20 21 7
-0.011813301 -0.566845 2.1900001 23 24 10
-0.0058035795 -0.56503403 2.1830001 26 27 13
0.0001677051 -0.56270468 2.174 25 27 10
0.00609256 -0.56063378 2.1660001 27 29 12
0.011973628 -0.55856228 2.158 28 30 12
0.017827462 -0.55700809 2.1520002 32 32 14
0.023648418 -0.55545324 2.1460001 30 32 14
0.029463992 -0.55441564 2.1420002 33 33 15
0.035257593 -0.55337751 2.138 32 32 14
0.041048452 -0.5525977 2.135 33 33 15
0.046866708 -0.55233508 2.1340001 30 29 13
0.052654669 -0.55181324 2.1320002 32 29 13
0.058458973 -0.55154955 2.131 34 31 15
0.064287819 -0.55154431 2.131 30 29 13
0.07011649 -0.55153853 2.131 31 30 14
0.076051876 -0.55230868 2.1340001 31 30 14
0.081965111 -0.55281955 2.1360002 31 30 14
0.088012382 -0.55410635 2.141 34 33 17
0.093911409 -0.55435753 2.1420002 36 35 19
0.10000193 -0.5556432 2.1470001 37 36 20
0.10607025 -0.55666965 2.151 42 41 25
0.11226424 -0.55821317 2.1570001 49 48 32
0.11860033 -0.56027377 2.1650002 55 53 35
0.12486478 -0.5618161 2.171 60 57 37
0.13122201 -0.56361687 2.1780002 118 111 81
-0.16422142 -0.56134748 2.1470001 132 123 90
-0.15975559 -0.56632859 2.1660001 132 127 97
-0.15376502 -0.56608009 2.1650002 37 36 12
-0.14757465 -0.56504661 2.161 36 36 16
-0.14153692 -0.56453574 2.1590002 33 35 18
-0.13544692 -0.5637629 2.1560001 27 29 12
-0.12943307 -0.56325096 2.154 33 35 18
-0.12325774 -0.56195414 2.1490002 31 33 16
-0.1172733 -0.56144124 2.1470001 32 32 14
-0.11135139 -0.56118941 2.1460001 30 30 12
-0.10548379 -0.56119847 2.1460001 27 27 9
-0.099523082 -0.5606842 2.1440001 28 28 10
-0.093616761 -0.56043094 2.1430001 29 28 12
-0.087756589 -0.56043857 2.1430001 28 27 11
-0.082010843 -0.56123048 2.1460001 30 29 13
-0.076212972 -0.56176019 2.148 31 30 14
-0.070469461 -0.56281263 2.1520002 30 29 13
-0.06464386 -0.56334144 2.154 29 28 12
-0.058834419 -0.56413132 2.1570001 28 27 11
-0.053032953 -0.56518227 2.161 25 27 9
-0.047274884 -0.56701744 2.1680002 28 30 12
-0.041478399 -0.56885201 2.1750002 27 29 11
-0.035643499 -0.5706861 2.1820002 25 29 11
-0.02974301 -0.57199663 2.187 25 29 12
-0.023815088 -0.57330668 2.1920002 25 28 14
-0.017843489 -0.5740931 2.1950002 20 21 7
-0.011817675 -0.57304823 2.1910002 22 23 9
-0.0058030779 -0.57095665 2.1830001 26 27 13
0.00016761347 -0.56834137 2.1730001 29 28 12
0.0060864082 -0.56598711 2.164 29 31 14
0.011967043 -0.56415552 2.1570001 28 30 12
0.017809352 -0.56232345 2.1500001 29 31 13
0.023635356 -0.56101394 2.1450002 30 32 14
0.029420184 -0.55944246 2.1390002 30 32 14
0.035238069 -0.55891651 2.1370001 31 31 13
0.041025691 -0.5581286 2.1340001 32 32 14
0.046862673 -0.55812484 2.1340001 31 31 13
0.052650139 -0.55759746 2.1320002 32 30 12
0.05848138 -0.55759269 2.1320002 32 30 12
0.064282298 -0.55732584 2.131 32 32 14
0.07011047 -0.55732006 2.131 31 31 13
0.076045372 -0.5580985 2.1340001 33 33 15
0.082034849 -0.55913776 2.138 35 35 17
0.088045985 -0.56017667 2.1420002 35 34 18
0.093991086 -0.56069195 2.1440001 37 36 20
0.10008659 -0.56199127 2.1490002 38 37 23
0.10615988 -0.56302857 2.1530001 42 41 25
0.11230679 -0.56432688 2.158 50 49 33
0.11853553 -0.56588614 2.164 52 50 32
0.12479679 -0.56744492 2.1700001 62 59 38
0.13115074 -0.56926453 2.177 119 112 82
-0.16283125 -0.56241679 2.1290002 134 125 92
-0.15966865 -0.5719403 2.1650002 128 123 93
-0.15396535 -0.5727458 2.1680002 44 42 24
-0.14776726 -0.57170147 2.164 37 35 17
-0.14165621 -0.57092088 2.161 30 32 15
-0.1354984 -0.56987572 2.1570001 27 29 12
-0.12948231 -0.56935841 2.1550002 29 31 14
-0.12330473 -0.56804788 2.1500001 31 33 15
-0.11731803 -0.56752956 2.148 32 32 14
-0.11134199 -0.56701082 2.1460001 31 31 13
-0.10542573 -0.56675577 2.1450002 32 32 14
-0.099468239 -0.56623602 2.1430001 30 30 12
-0.093652487 -0.56650841 2.1440001 29 28 12
-0.087871969 -0.56704462 2.1460001 27 26 10
-0.082042046 -0.567316 2.1470001 28 27 13
-0.076277412 -0.56811541 2.1500001 28 27 11
-0.070463426 -0.56865025 2.1520002 32 31 15
-0.064668335 -0.56944883 2.1550002 30 29 13
-0.058829375 -0.56998259 2.1570001 27 29 12
-0.053028397 -0.57104427 2.161 26 28 11
-0.04727082 -0.57289845 2.1680002 29 31 14
-0.041455753 -0.57448769 2.174 27 29 11
-0.035624094 -0.57634085 2.181 25 29 11
-0.029740445 -0.5779292 2.187 25 29 12
-0.023834758 -0.57978123 2.194 22 25 11
-0.017850081 -0.58031166 2.1960001 20 21 7
-0.011822048 -0.57925588 2.1920002 24 25 11
-0.0058025764 -0.57687831 2.1830001 25 26 12
0.00016759901 -0.57423598 2.1730001 28 27 11
0.0060858824 -0.57185733 2.164 26 28 11
0.011966011 -0.57000673 2.1570001 27 29 11
0.017799532 -0.56789136 2.1490002 29 31 13
0.023622299 -0.56656832 2.1440001 31 33 15
0.029403893 -0.56498051 2.138 31 33 15
0.035235029 -0.56471342 2.1370001 33 33 15
0.041022155 -0.56391734 2.1340001 32 32 14
0.046858642 -0.56391358 2.1340001 31 31 13
0.052695002 -0.56390935 2.1340001 31 31 13
0.058531214 -0.56390452 2.1340001 32 32 14
0.064337119 -0.56363505 2.1330001 31 31 13
0.070170268 -0.56362927 2.1330001 31 31 13
0.076145768 -0.56467998 2.1370001 33 33 15
0.082142942 -0.56573021 2.141 35 35 17
0.088120684 -0.56651568 2.1440001 35 34 18
0.094114594 -0.56730062 2.1470001 33 34 20
0.10021782 -0.56861353 2.1520002 35 36 22
0.1063481 -0.5699259 2.1570001 43 42 28
0.11255751 -0.57150203 2.1630001 49 48 34
0.11879942 -0.57307756 2.1690001 48 46 28
0.12507384 -0.57465261 2.1750002 67 64 44
-0.16144134 -0.56338763 2.1110001 137 126 93
-0.15921307 -0.57621121 2.1590002 133 131 99
-0.15402366 -0.57889307 2.1690001 69 67 42
-0.14782332 -0.57783794 2.1650002 40 38 20
-0.14164445 -0.57678229 2.161 32 34 17
-0.13542432 -0.57545924 2.1560001 32 34 17
-0.12947148 -0.57520342 2.1550002 27 29 12
-0.12346644 -0.57468015 2.1530001 28 30 12
-0.1174174 -0.57388943 2.1500001 33 33 15
-0.1113326 -0.57283133 2.1460001 32 32 14
-0.10541681 -0.57257354 2.1450002 30 30 12
-0.099506237 -0.57231528 2.1440001 30 30 12
-0.09368822 -0.57259035 2.1450002 30 29 13
-0.087864503 -0.57286507 2.1460001 28 27 11
-0.082035065 -0.57313919 2.1470001 28 27 11
-0.076235436 -0.57367986 2.1490002 30 29 13
-0.070424668 -0.57421994 2.151 33 32 16
-0.06469281 -0.57556057 2.1560001 29 31 14
-0.05887888 -0.57636666 2.1590002 27 29 12
-0.053048391 -0.5771724 2.1620002 26 28 11
-0.047288563 -0.57904547 2.1690001 27 29 12
-0.041452192 -0.58038402 2.174 28 30 13
-0.035637364 -0.58252305 2.1820002 27 29 12
-0.029737886 -0.58386075 2.187 26 28 11
-0.023832709 -0.5857318 2.194 23 24 10
-0.01784854 -0.58626753 2.1960001 20 21 7
-0.011815636 -0.58493394 2.1910002 26 27 13
-0.0057994183 -0.58253199 2.1820002 28 27 13
0.00016758457 -0.5801295 2.1730001 28 27 11
0.0060881707 -0.57799345 2.1650002 30 29 13
0.011976074 -0.57639086 2.1590002 31 31 13
0.017814565 -0.5742538 2.151 31 31 13
0.023631282 -0.57265013 2.1450002 33 33 15
0.029401362 -0.57077909 2.138 33 33 15
0.035215516 -0.57024246 2.1360002 33 33 15
0.04103785 -0.5699721 2.135 32 32 14
0.046898533 -0.57023537 2.1360002 31 31 13
0.052715167 -0.56996405 2.135 32 32 14
0.058553629 -0.56995934 2.135 31 31 13
0.064361773 -0.56968713 2.1340001 30 30 12
0.070230067 -0.56994832 2.135 32 32 14
0.076139279 -0.570476 2.1370001 34 34 16
0.082097597 -0.57127011 2.1400001 34 36 18
0.088031009 -0.57179689 2.1420002 34 36 19
0.09406279 -0.5728569 2.1460001 34 36 19
0.10020934 -0.57445031 2.1520002 34 35 21
0.10643773 -0.5763101 2.1590002 45 46 34
0.11265209 -0.5779025 2.1650002 47 48 36
0.11889896 -0.57949424 2.171 48 45 29
0.12517835 -0.58108562 2.177 65 62 42
0.13106859 -0.58080798 2.1760001 118 110 83
-0.15912625 -0.58179682 2.158 128 126 94
-0.15401098 -0.58477539 2.1690001 99 97 72
-0.14801593 -0.58451813 2.1680002 39 38 16
-0.14176381 -0.58318204 2.1630001 34 36 19
-0.13553868 -0.5818454 2.158 30 32 15
-0.12946069 -0.58104765 2.1550002 27 29 12
-0.12351346 -0.58078849 2.154 27 29 12
-0.11751679 -0.58025932 2.1520002 30 30 12
-0.11147888 -0.57945997 2.1490002 33 33 15
-0.10540795 -0.5783906 2.1450002 30 30 12
-0.099497832 -0.57812953 2.1440001 31 31 13
-0.093680307 -0.57840741 2.1450002 32 31 15
-0.087938927 -0.57922399 2.148 28 27 11
-0.082104512 -0.57950079 2.1490002 28 27 11
-0.076264426 -0.57977718 2.1500001 28 27 11
-0.070418671 -0.58005309 2.151 28 30 13
-0.064657286 -0.5811376 2.1550002 27 29 12
-0.058901116 -0.58249116 2.1600001 29 31 14
-0.053092916 -0.58357459 2.164 26 28 11
-0.04728451 -0.58492726 2.1690001 25 27 10
-0.041467708 -0.58654916 2.1750002 25 27 10
-0.035634302 -0.58844024 2.1820002 26 28 11
-0.029762529 -0.59033084 2.1890001 27 29 12
-0.023830658 -0.59168142 2.194 24 25 11
-0.017847005 -0.59222263 2.1960001 21 22 8
-0.011803836 -0.59033614 2.1890001 23 24 10
-0.0057962621 -0.58817941 2.181 25 26 12
0.00016757014 -0.58602214 2.1730001 26 25 9
0.0060932701 -0.58440381 2.1670001 28 27 11
0.011975044 -0.58224559 2.1590002 30 30 12
0.017829595 -0.58062625 2.1530001 30 30 12
0.023640268 -0.57873672 2.1460001 32 32 14
0.029440088 -0.5773859 2.141 34 34 16
0.03524546 -0.57657409 2.138 32 32 14
0.041053556 -0.57603157 2.1360002 31 31 13
0.046894517 -0.57602781 2.1360002 31 31 13
0.05271066 -0.57575381 2.135 31 31 13
0.058521204 -0.57547939 2.1340001 32 32 14
0.064386435 -0.57574379 2.135 31 31 13
0.070256978 -0.57600778 2.1360002 30 30 12
0.076204054 -0.57681054 2.1390002 33 33 15
0.08216735 -0.57761288 2.1420002 32 34 16
0.088105723 -0.57814485 2.1440001 33 35 18
0.094142482 -0.57921576 2.148 35 36 22
0.10024744 -0.58055592 2.1530001 35 38 24
0.10657664 -0.58297396 2.1620002 43 44 32
0.11285073 -0.58485228 2.1690001 48 49 37
0.11910805 -0.58646041 2.1750002 47 43 33
0.12522538 -0.58725911 2.1780002 60 56 39
0.13087697 -0.58590031 2.1730001 117 109 82
-0.15749116 -0.58165759 2.1360002 127 121 94
-0.15357232 -0.58902282 2.1630001 117 115 91
-0.14793545 -0.59012443 2.1670001 38 37 15
-0.14194869 -0.58986408 2.1660001 36 36 18
-0.13571584 -0.58851385 2.161 34 33 17
-0.12957007 -0.58743554 2.1570001 32 31 15
-0.12350316 -0.58662903 2.154 31 30 14
-0.11756156 -0.58636677 2.1530001 27 24 8
-0.11157327 -0.58583164 2.151 32 29 13
-0.10549736 -0.58475131 2.1470001 29 28 12
-0.099582262 -0.58448756 2.1460001 29 28 12
-0.093672395 -0.58422339 2.1450002 32 31 15
-0.087849617 -0.58450335 2.1460001 28 27 11
-0.08209756 -0.58532768 2.1490002 26 28 11
-0.076222487 -0.58533436 2.1490002 25 27 10
-0.070412681 -0.58588529 2.151 26 28 11
-0.064621769 -0.58670813 2.154 27 29 12
-0.058868829 -0.5880754 2.1590002 27 29 12
-0.053063855 -0.58916962 2.1630001 28 30 13
-0.047280472 -0.59080821 2.1690001 27 29 12
-0.04148322 -0.59271872 2.1760001 25 27 10
-0.035647582 -0.59462875 2.1830001 26 27 13
-0.029773571 -0.59653831 2.1900001 29 30 16
-0.023828618 -0.59763014 2.194 26 27 13
-0.017837347 -0.59790438 2.1950002 22 23 9
-0.011802823 -0.59627122 2.1890001 21 22 8
-0.0057957647 -0.59409279 2.181 22 23 9
0.0001677871 -0.59273118 2.1760001 25 27 10
0.0061039943 -0.59136885 2.171 29 28 12
0.011990657 -0.5889166 2.1620002 30 29 13
0.017836345 -0.58673614 2.154 30 29 13
0.023638243 -0.58455527 2.1460001 30 30 12
0.02943757 -0.58319098 2.141 31 31 13
0.035242446 -0.58237106 2.138 27 27 9
0.041069265 -0.58209544 2.1370001 30 30 12
0.046868552 -0.58154678 2.135 33 33 15
0.052632108 -0.58072549 2.1320002 31 31 13
0.058406532 -0.58017594 2.1300001 32 32 14
0.064290494 -0.58071554 2.1320002 31 31 13
0.07025101 -0.58179933 2.1360002 30 30 12
0.076268837 -0.58315492 2.141 31 31 13
0.082237095 -0.58396536 2.1440001 34 34 16
0.088139378 -0.5842306 2.1450002 31 32 18
0.094222195 -0.58558464 2.1500001 32 33 19
0.10033211 -0.58693838 2.1550002 34 35 21
0.10666628 -0.58938086 2.164 42 43 31
0.11289331 -0.59100574 2.1700001 42 43 31
0.1190981 -0.59235787 2.1750002 47 45 27
0.12504247 -0.59234774 2.1750002 61 58 38
0.13074563 -0.59124762 2.171 119 110 80
-0.15688851 -0.58524865 2.128 131 123 96
-0.15348877 -0.59461224 2.1620002 131 127 103
-0.14805986 -0.59654975 2.1690001 33 30 9
-0.14206807 -0.59628665 2.1680002 35 35 17
-0.13576743 -0.59464782 2.1620002 34 33 17
-0.12949927 -0.59300852 2.1560001 34 33 17
-0.1234929 -0.59246886 2.154 30 29 13
-0.11755177 -0.5922038 2.1530001 31 28 12
-0.11166769 -0.59221339 2.1530001 31 28 12
-0.10563592 -0.59139723 2.1500001 30 29 13
-0.099620298 -0.59058058 2.1470001 28 27 11
-0.09370818 -0.59031367 2.1460001 30 29 13
-0.087842211 -0.5903213 2.1460001 30 29 13
-0.082090624 -0.59115368 2.1490002 27 29 12
-0.076216035 -0.59116036 2.1490002 24 26 9
-0.070406713 -0.59171671 2.151 25 27 10
-0.064556293 -0.59199756 2.1520002 27 29 12
-0.058809295 -0.59337825 2.1570001 25 27 10
-0.053034812 -0.59475845 2.1620002 28 30 13
-0.047276448 -0.59668845 2.1690001 28 27 11
-0.041498747 -0.59889293 2.177 26 28 11
-0.035660867 -0.60082191 2.184 26 27 13
-0.029784624 -0.60275048 2.1910002 23 24 10
-0.023837442 -0.60385317 2.1950002 25 26 12
-0.017852075 -0.60440511 2.197 20 21 7
-0.011817989 -0.60303092 2.1920002 24 25 11
-0.0058032405 -0.60083073 2.184 24 25 11
0.00016777274 -0.59863019 2.1760001 27 26 10
0.0061006602 -0.59697932 2.1700001 28 27 11
0.011984084 -0.59450257 2.161 31 30 14
0.017826544 -0.59230047 2.1530001 30 32 15
0.023636222 -0.59037298 2.1460001 32 31 15
0.029462552 -0.58954537 2.1430001 31 31 13
0.035272405 -0.58871734 2.1400001 30 30 12
0.041065764 -0.58788878 2.1370001 29 29 11
0.046820663 -0.58678466 2.1330001 30 30 12
0.052602939 -0.58623022 2.131 34 34 16
0.05840157 -0.58595043 2.1300001 32 32 14
0.064345345 -0.58704561 2.1340001 30 30 12
0.070343718 -0.58841532 2.1390002 30 30 12
0.076298006 -0.58923441 2.1420002 32 32 14
0.082268521 -0.59005302 2.1450002 35 35 17
0.088173039 -0.59032089 2.1460001 34 33 17
0.094258085 -0.59168857 2.151 37 36 20
0.10037024 -0.59305578 2.1560001 38 37 21
0.10670663 -0.59552276 2.1650002 42 43 29
0.11293589 -0.59716392 2.171 40 41 27
0.11919768 -0.59880465 2.177 53 51 33
0.12520455 -0.59906965 2.1780002 67 64 43
-0.15319231 -0.59936213 2.158 131 127 103
-0.14791122 -0.60187405 2.1670001 38 35 14
-0.14192538 -0.60160828 2.1660001 36 36 18
-0.13569348 -0.60023087 2.161 34 36 19
-0.12942852 -0.59857523 2.1550002 35 34 18
-0.12342535 -0.59803009 2.1530001 32 31 15
-0.1175966 -0.59831786 2.154 30 29 13
-0.11171024 -0.59832734 2.154 29 28 12
-0.1057745 -0.59805864 2.1530001 30 29 13
-0.099751152 -0.59723389 2.1500001 32 31 15
-0.09374398 -0.59640855 2.1470001 31 30 14
-0.087793909 -0.59586066 2.1450002 29 28 12
-0.082045518 -0.59670109 2.148 28 27 11
-0.07617414 -0.5967077 2.148 26 28 11
-0.070400767 -0.59754729 2.151 27 29 12
-0.064550839 -0.59783089 2.1520002 25 27 10
-0.058831573 -0.5995028 2.158 26 28 11
-0.053054847 -0.60089666 2.1630001 30 29 13
-0.047294226 -0.60284555 2.1700001 29 28 12
-0.041495219 -0.60479397 2.177 27 29 12
-0.035657834 -0.60674191 2.184 27 29 12
-0.029782088 -0.60868943 2.1910002 23 24 10
-0.023835413 -0.60980296 2.1950002 26 27 13
-0.017858678 -0.6106382 2.1980002 19 20 6
-0.011827763 -0.60952818 2.194 22 23 9
-0.0058107171 -0.60758418 2.187 27 26 10
0.00016798971 -0.60536188 2.1790001 26 28 11
0.0061001405 -0.60286134 2.1700001 29 28 12
0.011983063 -0.60036016 2.161 32 31 15
0.017808465 -0.59758073 2.151 32 31 15
0.023623196 -0.5959121 2.1450002 32 32 14
0.029460045 -0.5953542 2.1430001 30 30 12
0.035269402 -0.59451807 2.1400001 30 30 12
0.041081484 -0.59395915 2.138 31 31 13
0.046816688 -0.59256637 2.1330001 35 35 17
0.052623164 -0.59228438 2.1320002 35 35 17
0.058451459 -0.59227967 2.1320002 31 31 13
0.064400204 -0.5933857 2.1360002 30 30 12
0.070403531 -0.59476894 2.141 31 31 13
0.07632719 -0.59531844 2.1430001 33 33 15
0.082261585 -0.5958674 2.1450002 32 32 14
0.088288881 -0.59697133 2.1490002 34 33 17
0.09438163 -0.59835261 2.154 36 35 19
0.10054805 -0.60001117 2.1600001 38 37 21
0.10674702 -0.60166925 2.1660001 40 42 25
0.11303053 -0.60360456 2.1730001 40 42 25
0.11918778 -0.60470599 2.177 51 49 29
0.12525165 -0.60525143 2.1790001 81 79 55
-0.15642081 -0.59510285 2.1220002 132 123 93
-0.15325086 -0.60549188 2.1590002 126 120 95
-0.14789918 -0.60774767 2.1670001 52 47 26
-0.14204481 -0.60803998 2.1680002 37 35 17
-0.13580792 -0.60664892 2.1630001 34 33 17
-0.12953798 -0.60497707 2.1570001 32 31 15
-0.12358714 -0.60470694 2.1560001 32 31 15
-0.11769606 -0.6047169 2.1560001 33 32 16
-0.1118047 -0.60472643 2.1560001 29 31 14
-0.10581482 -0.60417438 2.154 29 28 12
-0.099835634 -0.60362208 2.1520002 26 25 9
-0.093867131 -0.60306907 2.1500001 30 29 13
-0.087868407 -0.6022352 2.1470001 32 31 15
-0.082038634 -0.60252267 2.148 29 28 12
-0.076203205 -0.60280991 2.1490002 28 30 13
-0.070427582 -0.6036576 2.1520002 27 29 12
-0.064575382 -0.60394371 2.1530001 24 26 9
-0.058799352 -0.60507101 2.1570001 26 25 9
-0.053050358 -0.60675877 2.1630001 28 27 11
-0.047312014 -0.60900718 2.171 31 30 14
-0.041510768 -0.61097461 2.1780002 30 29 13
-0.035654809 -0.61266094 2.184 27 29 12
-0.029793154 -0.61490798 2.1920002 25 26 12
-0.023855103 -0.6163128 2.197 25 26 12
-0.017873412 -0.61715621 2.2 19 20 6
-0.011837539 -0.61603534 2.1960001 23 22 8
-0.0058128801 -0.61379188 2.1880002 27 26 10
0.00016774418 -0.61042571 2.1760001 31 31 13
0.0060883793 -0.6076203 2.1660001 32 32 14
0.011970956 -0.60565585 2.1590002 30 30 12
0.017815232 -0.60369086 2.1520002 29 29 11
0.023643214 -0.60228652 2.1470001 27 27 9
0.029485039 -0.60172319 2.1450002 30 30 12
0.035299376 -0.60087889 2.1420002 30 30 12
0.04109722 -0.60003412 2.1390002 36 36 18
0.046856619 -0.59890825 2.135 34 34 16
0.052692752 -0.59890407 2.135 32 32 14
0.058583591 -0.59946042 2.1370001 28 27 11
0.064485215 -0.6000163 2.1390002 32 31 15
0.070463374 -0.60113269 2.1430001 31 31 13
0.076356389 -0.60140699 2.1440001 32 31 15
0.082293041 -0.60196143 2.1460001 33 32 16
0.08828149 -0.60279578 2.1490002 37 36 22
0.094417572 -0.60447115 2.1550002 36 35 19
0.10063277 -0.60642648 2.1620002 34 33 17
0.1068367 -0.60810077 2.1680002 40 39 23
0.1131772 -0.61033559 2.1760001 44 43 27
0.11928742 -0.61116737 2.1790001 50 49 27
0.1252988 -0.6114378 2.1800001 96 92 67
-0.15352239 -0.61247581 2.1630001 125 119 92
-0.14795543 -0.61390382 2.1680002 72 68 44
-0.14209875 -0.61419868 2.1690001 36 34 16
-0.13592239 -0.61307728 2.1650002 32 31 15
-0.12970752 -0.61167222 2.1600001 35 34 18
-0.12363431 -0.61083305 2.1570001 31 30 14
-0.11763179 -0.61027658 2.1550002 28 30 13
-0.11169175 -0.61000282 2.154 29 31 14
-0.10570782 -0.60944533 2.1520002 30 32 14
-0.099827349 -0.60945386 2.1520002 32 32 14
-0.093859322 -0.60889548 2.1500001 28 27 11
-0.087942936 -0.60861981 2.1490002 30 29 13
-0.08210817 -0.60891014 2.1500001 31 30 14
-0.076232292 -0.60891676 2.1500001 30 29 13
-0.070454396 -0.60977256 2.1530001 30 29 13
-0.064599954 -0.61006141 2.154 28 27 11
-0.058794405 -0.6109162 2.1570001 26 25 9
-0.053045891 -0.61262029 2.1630001 26 25 9
-0.047264449 -0.61432385 2.1690001 29 28 12
-0.041507266 -0.61687672 2.1780002 28 30 12
-0.035668131 -0.61886257 2.1850002 25 27 10
-0.029817816 -0.62141436 2.194 26 28 11
-0.023863945 -0.62254965 2.1980002 22 23 9
-0.0178719 -0.6231178 2.2 21 22 8
-0.011831149 -0.62170291 2.1950002 24 23 9
-0.0058097318 -0.61943769 2.187 29 28 12
0.00016757582 -0.61575592 2.174 31 31 13
0.0060850536 -0.61320657 2.1650002 29 29 11
0.011958855 -0.61093986 2.1570001 30 30 12
0.017822005 -0.6098057 2.1530001 27 27 9
0.023641216 -0.60810453 2.1470001 32 30 12
0.029482547 -0.60753584 2.1450002 37 35 17
0.035312872 -0.60696661 2.1430001 38 38 20
0.041132178 -0.60639691 2.141 34 34 16
0.046918504 -0.60554355 2.138 30 30 12
0.052737683 -0.6052562 2.1370001 30 29 13
0.058606073 -0.60553461 2.138 27 26 10
0.06444966 -0.60552949 2.138 30 29 13
0.070457473 -0.60693997 2.1430001 31 30 14
0.076385617 -0.60750037 2.1450002 31 33 16
0.082401194 -0.60862654 2.1490002 31 33 16
0.088397369 -0.60946906 2.1520002 35 34 20
0.09454114 -0.61116064 2.158 36 35 21
0.10081059 -0.61341828 2.1660001 37 36 22
0.10697567 -0.61482573 2.171 40 39 23
0.11327187 -0.616799 2.1780002 41 40 24
0.11922286 -0.6167894 2.1780002 54 51 31
0.12511609 -0.61649615 2.177 104 100 76
-0.15421976 -0.62119585 2.1730001 130 127 99
-0.14814821 -0.62063622 2.171 61 59 35
-0.14221826 -0.62064785 2.171 46 44 26
-0.1360369 -0.61951566 2.1670001 34 34 16
-0.129757 -0.61781108 2.161 33 32 16
-0.12368151 -0.61696368 2.158 32 31 15
-0.11756755 -0.61583 2.154 32 31 15
-0.11163073 -0.61555344 2.1530001 30 29 13
-0.10564999 -0.61499059 2.151 35 34 18
-0.099772714 -0.61499906 2.151 34 33 17
-0.09393885 -0.61529297 2.1520002 29 28 12
-0.088017471 -0.61501455 2.151 28 27 11
-0.082177714 -0.61530751 2.1520002 28 27 11
-0.076367751 -0.61588597 2.154 30 29 13
-0.070513956 -0.61617804 2.1550002 31 30 14
-0.064654529 -0.6164695 2.1560001 28 27 11
-0.058762234 -0.61647469 2.1560001 27 26 12
-0.053016927 -0.61819506 2.1620002 26 25 9
-0.047216903 -0.61962891 2.1670001 26 28 11
-0.041484721 -0.62249196 2.177 28 30 13
-0.035648808 -0.62449676 2.184 25 29 12
-0.029815307 -0.62735897 2.194 25 27 10
-0.023872795 -0.62879097 2.1990001 24 26 9
-0.017878518 -0.62936461 2.2010002 21 22 8
-0.011824762 -0.62736416 2.194 29 28 14
-0.005801273 -0.62450552 2.184 29 28 12
0.0001672534 -0.62050247 2.1700001 30 30 12
0.0060789189 -0.61850059 2.1630001 29 29 11
0.011957848 -0.61678416 2.1570001 30 28 10
0.017828779 -0.61592507 2.154 33 31 13
0.023639226 -0.61392176 2.1470001 37 35 17
0.029466322 -0.61306161 2.1440001 39 37 19
0.03529343 -0.61248708 2.1420002 32 32 14
0.04114794 -0.61248392 2.1420002 29 29 11
0.0469804 -0.61219424 2.141 30 30 12
0.05278261 -0.61161816 2.1390002 27 29 12
0.058628585 -0.61161357 2.1390002 29 31 14
0.064474419 -0.61160845 2.1390002 28 30 13
0.070451595 -0.61274654 2.1430001 28 29 15
0.076414861 -0.61359823 2.1460001 29 30 16
0.08243268 -0.61473531 2.1500001 32 33 19
0.088348947 -0.61501414 2.151 33 34 22
0.094489507 -0.61672205 2.1570001 36 37 25
0.10080226 -0.61928725 2.1660001 36 37 23
0.10706541 -0.62128007 2.1730001 35 36 22
0.11331455 -0.62298644 2.1790001 40 39 23
0.11926782 -0.62297696 2.1790001 52 49 28
0.12522081 -0.622967 2.1790001 115 111 87
-0.15293004 -0.62188917 2.1550002 103 100 72
-0.14799984 -0.6259414 2.1690001 54 53 29
-0.14227231 -0.62681878 2.1720002 45 45 27
-0.13608868 -0.62567568 2.1680002 33 35 17
-0.12986656 -0.62424338 2.1630001 33 33 15
-0.12361414 -0.622522 2.1570001 31 30 14
-0.11755797 -0.62166595 2.154 28 27 11
-0.1116216 -0.62138677 2.1530001 33 32 16
-0.10564132 -0.62081826 2.151 31 30 14
-0.099718131 -0.62053812 2.1500001 31 30 14
-0.093843825 -0.6205461 2.1500001 30 29 13
-0.087969288 -0.62055361 2.1500001 27 26 10
-0.082209103 -0.62142646 2.1530001 27 26 10
-0.076325975 -0.62143302 2.1530001 29 28 12
-0.070475385 -0.62172765 2.154 32 29 13
-0.064649157 -0.62231064 2.1560001 32 31 15
-0.058839098 -0.6231817 2.1590002 28 27 13
-0.053037025 -0.62434089 2.1630001 25 26 12
-0.047191177 -0.625211 2.1660001 22 23 9
-0.041424092 -0.6275239 2.174 22 26 9
-0.035629503 -0.63012493 2.1830001 26 30 13
-0.029812815 -0.63330287 2.194 24 28 11
-0.023859939 -0.63445973 2.1980002 25 27 10
-0.017852655 -0.63446146 2.1980002 19 20 6
-0.011802213 -0.63215345 2.1900001 28 27 13
-0.0057875072 -0.62897897 2.1790001 28 27 13
0.00016708525 -0.62580407 2.1680002 27 26 10
0.0060756002 -0.6240719 2.1620002 30 29 13
0.011951301 -0.62233913 2.1560001 32 30 12
0.017810734 -0.62118334 2.1520002 33 31 13
0.023615228 -0.61916101 2.1450002 37 35 17
0.029450115 -0.61858147 2.1430001 36 34 16
0.035257526 -0.61771286 2.1400001 27 27 9
0.041106075 -0.61770958 2.1400001 28 27 11
0.046954535 -0.61770594 2.1400001 30 29 13
0.05277821 -0.61741316 2.1390002 28 30 13
0.058651105 -0.61769712 2.1400001 26 28 11
0.064469054 -0.61740339 2.1390002 29 30 16
0.070445746 -0.61855239 2.1430001 28 29 15
0.076372921 -0.61912358 2.1450002 31 32 18
0.082464203 -0.62084877 2.151 32 33 21
0.088464871 -0.62170762 2.154 34 35 23
0.094656937 -0.62372053 2.161 34 35 23
0.10088705 -0.62573296 2.1680002 29 30 16
0.10720444 -0.62803334 2.1760001 32 33 19
0.11346129 -0.62975609 2.1820002 36 35 19
0.11942229 -0.62974656 2.1820002 47 45 25
0.12515317 -0.62858218 2.1780002 106 103 82
-0.15206636 -0.62423217 2.1430001 104 103 75
-0.1479198 -0.63152635 2.1680002 48 47 23
-0.14239191 -0.63328576 2.174 50 52 34
-0.13626602 -0.63242292 2.171 32 36 18
-0.12985608 -0.63010323 2.1630001 33 33 15
-0.12360414 -0.62836546 2.1570001 33 32 16
-0.11754842 -0.62750131 2.154 28 27 11
-0.11161252 -0.62721932 2.1530001 30 29 13
-0.10573093 -0.62722808 2.1530001 31 30 14
-0.099709988 -0.6263625 2.1500001 32 31 15
-0.093836129 -0.62637037 2.1500001 31 30 14
-0.08792115 -0.62608647 2.1490002 31 30 14
-0.082125969 -0.62667614 2.151 29 28 12
-0.076248787 -0.62668258 2.151 26 25 9
-0.070404135 -0.62698001 2.1520002 27 26 10
-0.064583845 -0.62756824 2.154 29 28 12
-0.058806974 -0.62873876 2.158 32 31 17
-0.053032625 -0.63020021 2.1630001 26 27 13
-0.047230832 -0.63166112 2.1680002 27 28 14
-0.041382547 -0.6328302 2.1720002 22 26 9
-0.03557758 -0.63516426 2.1800001 23 27 10
-0.029755984 -0.6380806 2.1900001 22 26 9
-0.023857951 -0.6404137 2.1980002 24 25 11
-0.017834922 -0.63983274 2.1960001 19 20 6
-0.011785063 -0.63721162 2.187 28 27 13
-0.005781712 -0.63429874 2.177 29 28 14
0.00016722541 -0.63225943 2.1700001 28 27 11
0.0060835225 -0.63080239 2.1650002 32 31 15
0.011961389 -0.62876201 2.158 36 33 17
0.017800972 -0.62672132 2.151 35 35 17
0.023602253 -0.62468004 2.1440001 29 28 12
0.029447662 -0.62438649 2.1430001 30 29 13
0.035254586 -0.62350971 2.1400001 32 31 15
0.041102659 -0.62350655 2.1400001 33 32 16
0.0469287 -0.62321156 2.1390002 30 29 13
0.052798506 -0.62349874 2.1400001 30 30 12
0.058673654 -0.6237855 2.141 32 32 14
0.064523995 -0.62378037 2.141 28 30 13
0.070439927 -0.62435758 2.1430001 29 30 16
0.076437823 -0.62551689 2.1470001 33 34 20
0.082572415 -0.62754977 2.154 33 34 20
0.08862187 -0.62870812 2.158 28 29 15
0.094736777 -0.63015729 2.1630001 28 29 15
0.10097186 -0.63218862 2.1700001 28 29 15
0.10739273 -0.63509339 2.1800001 31 32 18
0.11371203 -0.6371237 2.187 33 32 16
0.11974096 -0.63740569 2.1880002 46 44 26
0.12537289 -0.63564783 2.1820002 126 124 106
-0.14743049 -0.63534117 2.161 104 103 79
-0.14231507 -0.63888073 2.1730001 52 52 34
-0.13612963 -0.63771582 2.1690001 34 38 20
-0.12990569 -0.63625628 2.164 30 32 14
-0.1237661 -0.63509035 2.1600001 32 32 14
-0.11775722 -0.63451201 2.158 32 32 14
-0.11186267 -0.63452119 2.158 32 32 14
-0.10586967 -0.63394201 2.1560001 30 29 13
-0.099794619 -0.63277417 2.1520002 30 29 15
-0.093828484 -0.63219392 2.1500001 31 30 16
-0.087913975 -0.63190728 2.1490002 31 30 16
-0.082004711 -0.63162011 2.148 30 29 13
-0.076100759 -0.63133258 2.1470001 30 29 13
-0.070267498 -0.63163263 2.148 29 28 12
-0.064518571 -0.63281441 2.1520002 27 26 10
-0.058829378 -0.63487786 2.1590002 25 27 10
-0.053028252 -0.63605869 2.1630001 30 32 15
-0.04724871 -0.63782722 2.1690001 29 30 16
-0.041379124 -0.63871306 2.1720002 27 31 14
-0.035542 -0.64048064 2.1780002 23 27 10
-0.029712757 -0.64312989 2.187 26 27 13
-0.023834264 -0.64577872 2.1960001 24 25 11
-0.017833443 -0.6457805 2.1960001 19 20 6
-0.011784086 -0.64313507 2.187 25 24 10
-0.0057812319 -0.64019501 2.177 29 28 14
0.00016713449 -0.63784271 2.1690001 32 31 15
0.0060773981 -0.63607806 2.1630001 35 34 18
0.011938228 -0.63343066 2.154 32 31 15
0.017774671 -0.63166499 2.148 28 27 11
0.023589287 -0.63019294 2.1430001 30 29 13
0.029431487 -0.62989676 2.1420002 30 29 13
0.035268147 -0.62959993 2.141 30 29 13
0.041099261 -0.62930268 2.1400001 33 32 16
0.046902884 -0.62871099 2.138 32 31 15
0.05274481 -0.62870681 2.138 35 35 17
0.058641415 -0.6292904 2.1400001 33 33 15
0.064548828 -0.62987357 2.1420002 32 34 17
0.070499875 -0.63075012 2.1450002 31 33 16
0.076573953 -0.6325084 2.151 30 31 17
0.082642317 -0.63397217 2.1560001 25 26 12
0.088778891 -0.63572949 2.1620002 27 28 14
0.094860442 -0.63689816 2.1660001 28 29 15
0.10114975 -0.63924259 2.174 31 32 18
0.10748255 -0.64158648 2.1820002 32 33 19
0.11380682 -0.64363575 2.1890001 33 35 18
0.11989547 -0.64421439 2.1910002 50 49 33
-0.1470096 -0.63941437 2.1550002 123 121 97
-0.14197639 -0.64328295 2.1680002 52 52 34
-0.13618158 -0.64388734 2.1700001 43 45 28
-0.1299554 -0.64241433 2.1650002 36 38 21
-0.12392811 -0.64183098 2.1630001 34 33 17
-0.11785691 -0.64095044 2.1600001 31 31 13
-0.11190552 -0.64066285 2.1590002 30 30 12
-0.10586114 -0.63978136 2.1560001 31 30 14
-0.099879287 -0.63919604 2.154 30 29 15
-0.093864515 -0.63831365 2.151 30 29 15
-0.087988652 -0.63832098 2.151 30 29 15
-0.082036227 -0.63773447 2.1490002 32 31 17
-0.076129988 -0.63744408 2.148 30 32 15
-0.070261754 -0.63744992 2.148 29 31 14
-0.064483307 -0.63834578 2.151 28 30 13
-0.058770072 -0.64013147 2.1570001 25 27 9
-0.052974872 -0.64132309 2.161 26 28 10
-0.047201268 -0.64310777 2.1670001 31 33 16
-0.041356668 -0.64429849 2.171 29 31 14
-0.035539076 -0.64637911 2.1780002 26 28 11
-0.029669555 -0.64816242 2.184 24 25 11
-0.023799745 -0.65083569 2.1930001 27 28 14
-0.017823854 -0.65143096 2.1950002 18 19 5
-0.011799278 -0.64994824 2.1900001 24 23 9
-0.0057887221 -0.64698112 2.1800001 30 29 15
0.00016704368 -0.64342004 2.1680002 33 32 16
0.0060684686 -0.64104551 2.1600001 33 32 16
0.011926161 -0.6386705 2.1520002 30 29 13
0.017773204 -0.63748223 2.148 30 29 13
0.023598349 -0.63629329 2.1440001 28 30 13
0.029442796 -0.63599437 2.1430001 26 28 11
0.035281718 -0.63569498 2.1420002 29 29 11
0.04109589 -0.6350984 2.1400001 30 30 12
0.046899036 -0.63450116 2.138 30 30 12
0.052765153 -0.63479382 2.1390002 31 31 13
0.058664016 -0.63538283 2.141 32 32 14
0.064633943 -0.63656491 2.1450002 27 29 12
0.070592709 -0.63744962 2.148 26 28 11
0.076674506 -0.63922423 2.154 26 28 11
0.082827248 -0.64129514 2.161 26 28 11
0.088935927 -0.6427719 2.1660001 28 30 13
0.095071726 -0.64424831 2.171 29 31 14
0.10123463 -0.64572412 2.1760001 34 36 19
0.10752314 -0.64779299 2.1830001 35 37 20
0.11374569 -0.64926779 2.1880002 33 37 20
0.11983114 -0.64985192 2.1900001 52 56 39
0.12535278 -0.64746827 2.1820002 20 24 7
0.12806217 -0.6314348 2.128 27 31 14
-0.14631595 -0.64225662 2.1450002 154 152 134
-0.1417688 -0.64825636 2.1650002 107 107 89
-0.13598259 -0.64886606 2.1670001 51 53 36
-0.12994511 -0.6482777 2.1650002 32 34 17
-0.12397555 -0.6479882 2.164 26 28 11
-0.11795665 -0.64739901 2.1620002 27 27 9
-0.11205208 -0.64740813 2.1620002 29 29 11
-0.10590176 -0.64591956 2.1570001 31 30 14
-0.09987127 -0.64502931 2.154 27 26 12
-0.093856968 -0.64413869 2.151 28 27 13
-0.088063359 -0.64474505 2.1530001 30 29 15
-0.082144111 -0.64445239 2.1520002 28 27 13
-0.076230146 -0.64415932 2.151 29 31 14
-0.070321485 -0.64386576 2.1500001 30 32 15
-0.064508058 -0.64447016 2.1520002 31 33 16
-0.058710799 -0.64537352 2.1550002 28 30 13
-0.052872512 -0.64597708 2.1570001 26 28 11
-0.047110297 -0.64777803 2.1630001 27 26 10
-0.041296158 -0.64927906 2.1680002 27 29 12
-0.035487223 -0.65137851 2.1750002 27 29 12
-0.029639963 -0.65347755 2.1820002 25 26 12
-0.023765242 -0.65587562 2.1900001 26 27 13
-0.017806152 -0.65677571 2.1930001 20 21 7
-0.011792923 -0.65557903 2.1890001 24 23 9
-0.0057855924 -0.65258485 2.1790001 25 24 10
0.00016687588 -0.64869177 2.1660001 31 28 12
0.0060567348 -0.64569664 2.1560001 33 30 14
0.01190856 -0.64359945 2.1490002 30 30 12
0.017755203 -0.64269978 2.1460001 32 32 14
0.023596419 -0.64209908 2.1440001 30 30 12
0.029426655 -0.64149809 2.1420002 32 32 14
0.035245888 -0.64089638 2.1400001 33 33 15
0.041073326 -0.64059383 2.1390002 33 33 15
0.04689521 -0.64029074 2.138 32 32 14
0.05278552 -0.64088559 2.1400001 30 30 12
0.058741435 -0.64207906 2.1440001 28 28 10
0.064749211 -0.64357144 2.1490002 27 27 9
0.070751294 -0.64476377 2.1530001 28 27 11
0.076775074 -0.64595574 2.1570001 31 33 16
0.082858875 -0.64744669 2.1620002 32 34 17
0.088969804 -0.64893705 2.1670001 30 32 15
0.095064066 -0.65012747 2.171 31 33 16
0.1012265 -0.65161693 2.1760001 34 36 19
0.10741603 -0.65310591 2.181 35 39 22
0.11352868 -0.65399545 2.184 40 44 27
0.11949331 -0.65398616 2.184 57 63 46
0.1246535 -0.64978439 2.1700001 49 55 38
-0.14916927 -0.66075486 2.187 155 152 132
-0.14247797 -0.65744275 2.1760001 141 140 126
-0.13622291 -0.65594286 2.171 41 42 28
-0.12999491 -0.65444261 2.1660001 31 34 20
-0.12396578 -0.65384823 2.164 28 30 13
-0.11783821 -0.65264916 2.1600001 28 27 11
-0.11193953 -0.65265822 2.1600001 32 31 15
-0.10589335 -0.65176034 2.1570001 29 28 14
-0.099956043 -0.65146631 2.1560001 30 29 15
-0.093980365 -0.65086967 2.154 27 26 12
-0.088097207 -0.650877 2.154 27 26 12
-0.082175687 -0.6505816 2.1530001 28 27 13
-0.076188579 -0.64968139 2.1500001 25 27 10
-0.070283107 -0.64938509 2.1490002 29 31 14
-0.064472876 -0.64999485 2.151 32 34 17
-0.058706056 -0.65120858 2.1550002 29 31 14
-0.05284372 -0.65151519 2.1560001 29 31 14
-0.047041148 -0.65272808 2.1600001 28 27 11
-0.04125471 -0.65454477 2.1660001 27 26 10
-0.035468023 -0.65696537 2.174 26 27 13
-0.02962397 -0.65908331 2.181 28 29 15
-0.023741608 -0.66120094 2.1880002 26 27 13
-0.017780347 -0.66180688 2.1900001 19 20 6
-0.011775803 -0.66059935 2.1860001 24 23 9
-0.0057771564 -0.65757811 2.1760001 30 29 15
0.00016678528 -0.6542542 2.1650002 30 27 11
0.0060534333 -0.65123206 2.1550002 33 30 14
0.011907591 -0.64941812 2.1490002 30 30 12
0.017753758 -0.64851028 2.1460001 31 31 13
0.023605509 -0.64820647 2.1450002 32 32 14
0.029438 -0.64759994 2.1430001 34 34 16
0.035259496 -0.6469928 2.141 34 34 16
0.041069996 -0.64638543 2.1390002 31 31 13
0.046913344 -0.64638191 2.1390002 29 28 12
0.052830581 -0.64728439 2.1420002 28 27 11
0.058791485 -0.64848864 2.1460001 27 26 10
0.064804241 -0.64999455 2.151 28 27 11
0.070778452 -0.65089566 2.154 33 33 15
0.076804496 -0.65209848 2.158 35 37 20
0.082890555 -0.65360296 2.1630001 35 37 20
0.088962689 -0.65480477 2.1670001 36 38 21
0.095100269 -0.65630835 2.1720002 39 41 24
0.10117194 -0.65720707 2.1750002 37 40 26
0.10730902 -0.65840745 2.1790001 40 43 29
0.1132598 -0.65839875 2.1790001 42 48 31
0.11921034 -0.65838951 2.1790001 111 117 100
0.12470112 -0.65596271 2.171 113 119 102
-0.14272882 -0.66455436 2.1800001 163 166 154
-0.13608687 -0.66121185 2.1690001 31 34 22
-0.12998478 -0.66030753 2.1660001 38 41 29
-0.1239561 -0.65970773 2.164 27 30 16
-0.11782897 -0.65849775 2.1600001 25 27 10
-0.11193074 -0.65850675 2.1600001 27 29 12
-0.10583591 -0.65729582 2.1560001 28 27 11
-0.099948138 -0.65730387 2.1560001 28 27 11
-0.093929291 -0.65639699 2.1530001 28 27 13
-0.088049307 -0.65640408 2.1530001 27 26 12
-0.082130983 -0.65610605 2.1520002 27 26 12
-0.076217934 -0.65580738 2.151 28 27 11
-0.07031019 -0.65550834 2.1500001 28 30 13
-0.064467706 -0.65581852 2.151 29 31 14
-0.058646865 -0.65643334 2.1530001 30 32 15
-0.052814968 -0.65704757 2.1550002 27 29 12
-0.047015585 -0.65827113 2.1590002 27 29 12
-0.041213296 -0.65979916 2.164 28 27 13
-0.035399914 -0.66163164 2.1700001 30 29 15
-0.029580839 -0.66407347 2.1780002 26 27 13
-0.02371799 -0.66651475 2.1860001 28 29 15
-0.017770793 -0.66743112 2.1890001 21 22 8
-0.011764078 -0.66590786 2.184 27 26 12
-0.005774036 -0.6631645 2.1750002 27 26 10
0.00016677179 -0.6601156 2.1650002 34 31 15
0.0060557518 -0.65737122 2.1560001 33 31 13
0.011917709 -0.655846 2.151 33 31 13
0.017760595 -0.65462518 2.1470001 33 31 13
0.023592597 -0.65370882 2.1440001 34 34 16
0.029421888 -0.65309685 2.1420002 33 32 16
0.035256654 -0.65278935 2.141 30 29 13
0.041066691 -0.65217656 2.1390002 28 27 11
0.046909571 -0.65217304 2.1390002 27 26 12
0.052801672 -0.65277874 2.141 25 24 8
0.058731981 -0.65368897 2.1440001 30 29 13
0.06473881 -0.65520859 2.1490002 29 31 14
0.07073994 -0.65642267 2.1530001 35 37 20
0.076798372 -0.65794122 2.158 36 39 25
0.08280731 -0.65884954 2.161 35 38 24
0.08887352 -0.66006225 2.1650002 36 39 25
0.095048942 -0.66188425 2.171 43 46 34
0.10116393 -0.66309607 2.1750002 40 43 31
0.10715281 -0.66339272 2.1760001 44 47 35
0.11304299 -0.66307926 2.1750002 52 55 41
0.11876335 -0.66185069 2.171 170 173 159
-0.14212866 -0.66768891 2.171 155 158 146
-0.13632734 -0.6683147 2.1730001 142 145 133
-0.13003473 -0.66647959 2.1670001 31 34 22
-0.12388921 -0.66525918 2.1630001 28 31 17
-0.11787435 -0.6646533 2.161 26 30 13
-0.11197381 -0.6646623 2.161 28 30 13
-0.10597488 -0.66405559 2.1590002 28 30 13
-0.09998665 -0.66344851 2.1570001 26 28 11
-0.094009146 -0.6628409 2.1550002 27 26 12
-0.088001467 -0.66192532 2.1520002 30 29 15
-0.08204817 -0.66131681 2.1500001 27 26 12
-0.076105602 -0.66070783 2.148 29 28 12
-0.070271917 -0.66102123 2.1490002 28 30 13
-0.064462587 -0.66164172 2.151 28 30 13
-0.058696672 -0.66287702 2.1550002 28 30 13
-0.052859772 -0.66349667 2.1570001 26 28 11
-0.047055379 -0.66473097 2.161 27 28 14
-0.041210003 -0.66565734 2.164 27 26 12
-0.03538077 -0.66719842 2.1690001 26 25 11
-0.029551309 -0.66935426 2.1760001 28 27 13
-0.023705244 -0.67212492 2.1850002 29 28 14
-0.01776937 -0.67335695 2.1890001 21 22 8
-0.011773907 -0.67243522 2.1860001 25 24 10
-0.0057762265 -0.66935986 2.1760001 26 25 11
0.00016683544 -0.66628402 2.1660001 31 29 11
0.006058075 -0.66351527 2.1570001 32 30 12
0.011922295 -0.66197652 2.1520002 33 31 13
0.017759174 -0.66043729 2.1470001 31 31 13
0.023579706 -0.6592052 2.1430001 32 31 15
0.029392062 -0.65828019 2.1400001 32 31 15
0.035237372 -0.65827769 2.1400001 29 28 14
0.041082602 -0.65827459 2.1400001 30 29 15
0.046905831 -0.65796357 2.1390002 30 29 15
0.052797467 -0.65857476 2.141 30 29 15
0.058672529 -0.65887797 2.1420002 32 31 15
0.064673409 -0.660411 2.1470001 32 34 17
0.070668623 -0.66163605 2.151 34 36 19
0.076756708 -0.66347587 2.1570001 37 40 26
0.082800776 -0.66469991 2.161 36 39 25
0.0889486 -0.66653866 2.1670001 38 41 29
0.0951728 -0.66868454 2.174 44 47 35
0.10138853 -0.67052233 2.1800001 43 46 34
0.10729216 -0.67020673 2.1790001 73 76 64
0.11251447 -0.66589212 2.1650002 174 177 165
-0.14087409 -0.6676718 2.1520002 159 159 149
-0.13594054 -0.67233622 2.1670001 158 160 150
-0.13020478 -0.67327714 2.1700001 150 153 141
-0.1240515 -0.67204577 2.1660001 30 33 19
-0.11797435 -0.67112428 2.1630001 30 34 17
-0.11191334 -0.67020226 2.1600001 30 34 17
-0.1058685 -0.66927981 2.1570001 31 33 16
-0.099932514 -0.66897744 2.1560001 31 33 16
-0.093914568 -0.6680541 2.1530001 32 33 19
-0.087953702 -0.66744059 2.151 33 32 18
-0.08204174 -0.66713703 2.1500001 35 34 20
-0.076170489 -0.66714317 2.1500001 32 31 15
-0.070266396 -0.66683865 2.1490002 29 28 14
-0.06442754 -0.66715413 2.1500001 26 28 11
-0.058610339 -0.66777968 2.1520002 27 29 12
-0.052831091 -0.66902518 2.1560001 25 27 10
-0.047029886 -0.67027038 2.1600001 27 28 14
-0.041187696 -0.67120475 2.1630001 27 28 14
-0.035361651 -0.67275941 2.1680002 27 26 12
-0.029548965 -0.67524451 2.1760001 26 27 13
-0.023714207 -0.67834973 2.1860001 27 26 12
-0.017776074 -0.67959255 2.1900001 22 21 7
-0.011767587 -0.67804229 2.1850002 23 22 8
-0.0057784212 -0.67556036 2.177 26 25 11
0.00016689918 -0.67245734 2.1670001 28 27 11
0.0060632103 -0.66997468 2.1590002 32 32 14
0.011926887 -0.66811204 2.1530001 31 31 13
0.017749492 -0.66593862 2.1460001 32 31 15
0.023555826 -0.66438544 2.141 30 31 17
0.029334797 -0.66283178 2.1360002 31 32 18
0.035185177 -0.66313946 2.1370001 32 33 19
0.041021761 -0.66313654 2.1370001 36 35 21
0.046880182 -0.66344333 2.138 36 35 21
0.052768633 -0.66406006 2.1400001 34 33 19
0.058667891 -0.66467631 2.1420002 32 31 15
0.064638197 -0.66591263 2.1460001 31 32 18
0.070630215 -0.66714859 2.1500001 38 39 27
0.076715104 -0.66900462 2.1560001 45 48 36
0.082794286 -0.67054987 2.161 45 48 36
0.088982701 -0.67271525 2.1680002 46 49 37
0.095296703 -0.67550063 2.177 42 44 34
0.10156666 -0.67766505 2.184 24 26 16
0.10733306 -0.6764158 2.1800001 187 188 176
0.11110269 -0.66337562 2.138 181 182 170
-0.13662025 -0.68164539 2.1780002 134 138 130
-0.13085487 -0.6825943 2.181 136 138 128
-0.12455745 -0.68072611 2.1750002 35 38 26
-0.11823802 -0.67854452 2.1680002 33 37 20
-0.11195656 -0.67636234 2.161 30 34 17
-0.10590942 -0.67543167 2.158 34 36 18
-0.09992481 -0.67481363 2.1560001 31 33 16
-0.09395092 -0.67419505 2.154 33 34 20
-0.087946884 -0.67326307 2.151 30 29 15
-0.082035363 -0.67295671 2.1500001 29 28 14
-0.076129138 -0.67264986 2.1490002 30 29 13
-0.070293605 -0.67296845 2.1500001 28 27 13
-0.064482436 -0.67359972 2.1520002 28 30 13
-0.058687452 -0.67454362 2.1550002 27 28 14
-0.052826948 -0.67486095 2.1560001 28 30 13
-0.047004428 -0.6758039 2.1590002 25 26 12
-0.041165423 -0.67674637 2.1620002 28 30 13
-0.035391491 -0.67925346 2.1700001 24 26 9
-0.029587375 -0.6820733 2.1790001 26 27 13
-0.023723187 -0.68457955 2.187 23 24 10
-0.017774675 -0.68552017 2.1900001 20 21 7
-0.011772044 -0.68426931 2.1860001 23 22 8
-0.0057779653 -0.68145269 2.177 26 25 11
0.00016696304 -0.67863584 2.1680002 30 27 11
0.0060627321 -0.67581832 2.1590002 30 30 12
0.011920407 -0.67362648 2.1520002 31 31 13
0.017731551 -0.67112106 2.1440001 30 29 13
0.023520965 -0.66924125 2.138 28 29 15
0.029305022 -0.66798717 2.1340001 28 29 15
0.035133027 -0.6679846 2.1340001 31 30 16
0.040999349 -0.66860777 2.1360002 32 31 17
0.046876505 -0.66923022 2.138 37 36 22
0.05273984 -0.66953945 2.1390002 48 47 33
0.058635913 -0.67016107 2.141 51 50 36
0.064633153 -0.6717214 2.1460001 51 52 38
0.070624709 -0.67296815 2.1500001 52 53 41
0.076673552 -0.67452753 2.1550002 46 49 37
0.082826167 -0.67671233 2.1620002 40 43 31
0.089180999 -0.68014872 2.1730001 36 39 27
0.095508195 -0.68295854 2.1820002 32 34 24
0.10174485 -0.68482906 2.1880002 29 31 21
0.10732481 -0.68231708 2.1800001 193 194 182
-0.13717453 -0.69038212 2.187 141 148 145
-0.13180491 -0.69354892 2.197 130 134 127
-0.12523521 -0.69040173 2.187 36 40 32
-0.11855626 -0.68630695 2.174 37 38 24
-0.11189626 -0.68189603 2.1600001 32 34 16
-0.105656 -0.67969441 2.1530001 35 35 17
-0.099731818 -0.67938656 2.1520002 32 32 14
-0.093856514 -0.67939389 2.1520002 31 30 14
-0.08789926 -0.67876941 2.1500001 29 28 12
-0.082029052 -0.67877591 2.1500001 28 27 11
-0.07612326 -0.67846626 2.1490002 28 27 11
-0.070288174 -0.67878759 2.1500001 26 28 11
-0.064477451 -0.67942429 2.1520002 26 28 11
-0.058628436 -0.67974472 2.1530001 26 28 11
-0.052822847 -0.68069613 2.1560001 27 29 12
-0.046978999 -0.6813314 2.158 27 29 12
-0.041200291 -0.68322915 2.164 26 28 11
-0.035421353 -0.68575799 2.1720002 27 29 12
-0.0296258 -0.68891776 2.1820002 25 26 12
-0.023732182 -0.69081426 2.1880002 22 23 9
-0.017773287 -0.69144732 2.1900001 20 21 9
-0.011771124 -0.69018549 2.1860001 23 22 8
-0.005785476 -0.68829173 2.1800001 25 24 10
0.000167181 -0.68545043 2.171 26 25 9
0.0060678734 -0.68229288 2.161 29 28 12
0.011919475 -0.67945063 2.1520002 29 28 12
0.017738439 -0.67723942 2.1450002 30 29 13
0.023530133 -0.67534339 2.1390002 30 29 15
0.029316466 -0.6740784 2.135 31 30 16
0.035113826 -0.67344451 2.1330001 30 29 15
0.040938579 -0.67344153 2.1330001 30 29 15
0.046807088 -0.67406952 2.135 33 32 18
0.05266178 -0.67438143 2.1360002 39 38 24
0.058603983 -0.67564005 2.1400001 41 40 26
0.064567916 -0.67689818 2.1440001 43 44 30
0.070553549 -0.67815578 2.148 39 40 26
0.076596491 -0.67972875 2.1530001 41 42 28
0.082819797 -0.68256408 2.1620002 33 34 20
0.089133129 -0.68571454 2.1720002 34 37 25
0.095457107 -0.68854874 2.181 40 42 32
0.10150458 -0.68917274 2.1830001 48 50 42
0.10726741 -0.68790203 2.1790001 186 187 181
-0.13685076 -0.69471008 2.1820002 159 166 165
-0.13161513 -0.69854051 2.194 141 147 140
-0.12556942 -0.69823176 2.1930001 40 44 37
-0.11892908 -0.69442004 2.181 37 38 24
-0.11225044 -0.68997115 2.1670001 36 36 18
-0.10579524 -0.68647701 2.1560001 34 34 16
-0.099770613 -0.68552947 2.1530001 31 31 13
-0.093849398 -0.68521839 2.1520002 30 29 13
-0.087851688 -0.68426996 2.1490002 31 30 14
-0.081984654 -0.6842764 2.1490002 29 28 12
-0.076082028 -0.68396389 2.148 27 29 12
-0.070315488 -0.68492478 2.151 26 28 11
-0.064502463 -0.68556672 2.1530001 27 29 12
-0.05865116 -0.6858899 2.154 29 31 14
-0.052843276 -0.68684942 2.1570001 26 28 11
-0.046997149 -0.68749011 2.1590002 26 28 11
-0.041235194 -0.68972254 2.1660001 26 28 11
-0.03545123 -0.69227296 2.174 25 27 10
-0.029664239 -0.69577819 2.1850002 24 25 11
-0.02377373 -0.69800925 2.1920002 20 21 9
-0.017796258 -0.69832933 2.1930001 19 20 8
-0.011786366 -0.69705671 2.1890001 23 21 10
-0.0057929899 -0.6951468 2.1830001 24 23 9
0.00016747609 -0.69259953 2.1750002 25 24 8
0.0060786353 -0.68941492 2.1650002 28 27 11
0.01193517 -0.68622988 2.1550002 27 26 10
0.017753603 -0.68368119 2.1470001 29 28 14
0.023550313 -0.68176901 2.141 28 27 13
0.029327936 -0.68017483 2.1360002 29 28 14
0.035127576 -0.67953545 2.1340001 30 28 17
0.040935423 -0.67921418 2.1330001 33 32 18
0.046781566 -0.67952913 2.1340001 32 31 17
0.052633084 -0.67984378 2.135 33 32 18
0.058599487 -0.68143171 2.1400001 34 32 21
0.064532861 -0.68238235 2.1430001 39 38 22
0.070482478 -0.68333244 2.1460001 40 39 25
0.076590642 -0.6855557 2.1530001 49 50 36
0.082890086 -0.68905222 2.164 47 48 34
0.089249454 -0.69254839 2.1750002 45 48 36
0.095406115 -0.6941334 2.1800001 54 56 48
0.1015434 -0.69539958 2.184 151 155 147
0.10696397 -0.69188929 2.1730001 186 190 183
-0.13753055 -0.70414788 2.1930001 168 172 172
-0.13130553 -0.70287341 2.1890001 174 180 173
-0.12544563 -0.70352501 2.1910002 38 42 35
-0.11902933 -0.70096523 2.1830001 40 41 27
-0.11244928 -0.69712043 2.171 34 33 17
-0.10588547 -0.69295412 2.158 37 37 19
-0.09976314 -0.6913563 2.1530001 32 32 14
-0.093755133 -0.69040012 2.1500001 31 31 13
-0.087804206 -0.68976468 2.148 31 31 13
-0.081864029 -0.68912888 2.1460001 29 31 13
-0.075970031 -0.68881357 2.1450002 29 31 14
-0.070146725 -0.68914026 2.1460001 30 32 15
-0.064407699 -0.69042981 2.1500001 29 31 14
-0.058592256 -0.69107676 2.1520002 26 28 11
-0.052863751 -0.69300771 2.158 26 28 11
-0.047058865 -0.69429606 2.1620002 29 28 12
-0.041270118 -0.6962263 2.1680002 28 27 13
-0.035464827 -0.69847715 2.1750002 27 28 14
-0.029689118 -0.70233321 2.187 23 24 12
-0.0237936 -0.70458329 2.194 16 17 5
