ply
format ascii 1.0
comment PCL generated
element vertex 1129
property float x
property float y
property float z
property uchar red
property uchar green
property uchar blue
element camera 0
property float view_px
property float view_py
property float view_pz
property float x_axisx
property float x_axisy
property float x_axisz
property float y_axisx
property float y_axisy
property float y_axisz
property float z_axisx
property float z_axisy
property float z_axisz
property float focal
property float scalex
property float scaley
property float centerx
property float centery
property int viewportx
property int viewporty
property float k1
property float k2
end_header
0.072299525 -0.27417946 2.1890001 35 40 46
0.078595258 -0.27517694 2.197 34 39 45
0.084934622 -0.27617407 2.2050002 32 38 44
0.091152497 -0.27666974 2.2090001 33 39 45
0.097524002 -0.2775408 2.2160001 30 37 40
0.10398033 -0.27853674 2.2240002 29 38 43
0.11062865 -0.27990797 2.2350001 30 39 44
0.11733691 -0.28127879 2.2460001 32 43 48
0.12465498 -0.28390154 2.2670002 36 46 53
0.13243419 -0.28727514 2.2940001 40 50 57
0.14048201 -0.29089865 2.3230002 48 57 62
0.14786658 -0.29289374 2.3390002 25 34 39
0.15467875 -0.29363608 2.345 28 34 37
0.16104235 -0.29350162 2.3440001 34 40 43
0.16747129 -0.29349199 2.3440001 35 41 47
0.1738254 -0.29335681 2.3430002 41 47 53
0.18032725 -0.29347166 2.3440001 49 58 63
0.18675421 -0.29346099 2.3440001 122 132 139
0.19400467 -0.2947019 2.3540001 136 147 152
-0.21372731 -0.26946828 2.1070001 160 169 164
-0.20706759 -0.26832935 2.098 83 90 86
-0.20093626 -0.26782954 2.0940001 30 38 31
-0.19473284 -0.26720151 2.089 33 39 32
-0.18873718 -0.26682895 2.0860002 28 32 24
-0.18284494 -0.26658395 2.0840001 32 34 26
-0.17713301 -0.26659453 2.0840001 39 39 29
-0.1716672 -0.26698861 2.0870001 42 42 32
-0.16626382 -0.26751027 2.0910001 44 46 36
-0.16091467 -0.26815963 2.0960002 47 49 39
-0.15568556 -0.26906464 2.1030002 55 61 54
-0.15084521 -0.27073705 2.1160002 43 49 42
-0.1457959 -0.27215335 2.1270001 29 33 26
-0.14009348 -0.27241781 2.1290002 47 49 41
-0.13419038 -0.27229804 2.128 43 40 33
-0.12799068 -0.27153817 2.1220002 92 89 82
-0.12199612 -0.27116179 2.1190002 33 30 23
-0.11612721 -0.27104098 2.118 26 27 21
-0.11026336 -0.27091989 2.1170001 24 30 23
-0.10445391 -0.27092639 2.1170001 27 33 26
-0.098644048 -0.27093256 2.1170001 21 27 19
-0.092921518 -0.27119434 2.1190002 23 29 22
-0.08718764 -0.27145576 2.1210001 22 28 21
-0.08140409 -0.27158892 2.1220002 22 28 21
-0.075614728 -0.27172166 2.1230001 22 28 21
-0.069819577 -0.2718541 2.1240001 22 28 21
-0.063988529 -0.27185819 2.1240001 22 28 21
-0.058184624 -0.27198994 2.125 22 28 21
-0.052350361 -0.27199334 2.125 20 26 19
-0.046559669 -0.27225235 2.1270001 20 26 19
-0.040776961 -0.27263904 2.1300001 20 26 19
-0.034977615 -0.27302539 2.1330001 21 27 20
-0.029134346 -0.27315533 2.1340001 21 27 20
-0.023285473 -0.27328494 2.135 22 28 21
-0.017439174 -0.2735422 2.1370001 22 28 21
-0.011581827 -0.27379915 2.1390002 25 31 24
-0.0057161157 -0.27418366 2.1420002 23 29 22
0.00016601638 -0.27443981 2.1440001 25 31 24
0.0060619554 -0.27482364 2.1470001 28 34 27
0.011963207 -0.27495113 2.148 24 31 27
0.017903166 -0.27559018 2.1530001 24 31 27
0.02383733 -0.27584493 2.1550002 26 33 30
0.029809996 -0.2763553 2.1590002 25 32 29
0.035738301 -0.2763533 2.1590002 33 40 39
0.041762955 -0.27699089 2.164 29 35 37
0.047792867 -0.27750012 2.1680002 34 40 42
0.053844549 -0.278009 2.1720002 36 42 45
0.059917986 -0.27851751 2.1760001 32 37 43
0.066013142 -0.27902558 2.1800001 34 39 45
0.072295137 -0.2801733 2.1890001 35 41 44
0.078626275 -0.28132063 2.1980002 34 40 43
0.084967986 -0.28233951 2.2060001 29 36 38
0.091229521 -0.28297409 2.2110002 31 38 37
0.097650141 -0.28399217 2.2190001 31 38 35
0.10411431 -0.28500989 2.227 30 38 37
0.11077049 -0.28641117 2.2380002 28 36 33
0.11748659 -0.28781196 2.2490001 31 39 38
0.12437259 -0.28946832 2.2620001 36 43 45
0.13167581 -0.29189196 2.2810001 38 47 50
0.13938515 -0.29495499 2.3050001 45 52 55
0.14697278 -0.29750562 2.325 46 53 56
0.15401 -0.29877615 2.335 28 34 37
0.16055189 -0.29902267 2.3370001 27 33 36
0.16696128 -0.2990129 2.3370001 26 32 35
0.17337006 -0.29900277 2.3370001 35 41 47
0.17985508 -0.29912022 2.3380001 45 53 60
0.18634495 -0.29923737 2.3390002 100 110 117
0.19349888 -0.30037752 2.348 135 145 152
-0.20754901 -0.27472293 2.1030002 161 169 162
-0.20102043 -0.27368984 2.095 19 27 20
-0.19490787 -0.27317896 2.0910001 29 35 28
-0.18872607 -0.27253711 2.0860002 38 42 34
-0.18283413 -0.27228683 2.0840001 39 41 31
-0.17703752 -0.27216691 2.0830002 42 42 32
-0.17149247 -0.27243865 2.085 58 60 50
-0.16625391 -0.27323279 2.0910001 56 58 48
-0.16090506 -0.27389604 2.0960002 38 42 34
-0.15597233 -0.275343 2.1070001 39 45 38
-0.15062229 -0.2761364 2.1130002 41 45 38
-0.14510171 -0.2766681 2.1170001 41 47 39
-0.13922966 -0.27654609 2.1160002 82 78 68
-0.13348864 -0.27668509 2.1170001 104 100 90
-0.12768133 -0.27669305 2.1170001 99 89 80
-0.12175842 -0.27643925 2.115 48 44 34
-0.11595567 -0.27644655 2.115 39 39 31
-0.11015246 -0.2764535 2.115 32 36 29
-0.10439818 -0.27659085 2.1160002 24 30 22
-0.09859141 -0.27659708 2.1160002 23 29 21
-0.092871971 -0.27686444 2.118 22 28 20
-0.087141186 -0.27713147 2.1200001 20 26 18
-0.081322357 -0.27713668 2.1200001 24 28 20
-0.075538836 -0.27727228 2.1210001 22 26 18
-0.069782399 -0.27753827 2.1230001 21 25 17
-0.063984588 -0.27767316 2.1240001 22 27 16
-0.058208413 -0.27793843 2.1260002 22 26 18
-0.052396394 -0.27807263 2.1270001 22 26 18
-0.046578676 -0.27820641 2.128 24 28 20
-0.040793575 -0.27860132 2.131 22 26 19
-0.034975447 -0.27886519 2.1330001 22 26 19
-0.029146191 -0.27912867 2.135 19 23 16
-0.023294937 -0.27926108 2.1360002 20 26 19
-0.017446253 -0.27952382 2.138 20 26 19
-0.011586521 -0.2797862 2.1400001 20 26 19
-0.0057184291 -0.28017896 2.1430001 20 26 19
0.00016600608 -0.28030989 2.1440001 23 29 22
0.0060587563 -0.28057119 2.1460001 24 30 23
0.011956895 -0.28070134 2.1470001 24 30 23
0.017893741 -0.28135413 2.1520002 25 31 24
0.023835853 -0.28174505 2.1550002 27 33 26
0.029808149 -0.28226632 2.1590002 28 33 29
0.035736084 -0.28226426 2.1590002 30 35 32
0.041741069 -0.28278479 2.1630001 31 35 35
0.047767859 -0.28330493 2.1670001 35 39 39
0.053866003 -0.2840862 2.1730001 33 39 41
0.059996881 -0.28486705 2.1790001 33 39 42
0.06616047 -0.28564754 2.1850002 29 35 38
0.072455801 -0.28681976 2.194 30 37 36
0.078692965 -0.28759944 2.2 28 35 34
0.085039794 -0.2886402 2.2080002 27 34 31
0.091347687 -0.28941903 2.214 25 32 29
0.097820178 -0.29058969 2.223 22 29 25
0.10429494 -0.2916292 2.2310002 23 30 26
0.1109122 -0.29292974 2.2410002 23 30 26
0.1175839 -0.29422984 2.2510002 25 32 28
0.12436502 -0.29566017 2.2620001 30 38 35
0.1313792 -0.29748219 2.276 35 43 42
0.13883248 -0.30008796 2.296 48 55 52
0.14626856 -0.30243182 2.3140001 58 65 64
0.15340713 -0.30399105 2.3260002 42 49 48
0.16006136 -0.30450431 2.3300002 27 34 33
0.16666552 -0.30488646 2.3330002 29 36 35
0.17313711 -0.3050068 2.3340001 33 39 45
0.17961359 -0.30512688 2.335 45 54 59
0.18585587 -0.30485454 2.3330002 68 78 85
0.19340497 -0.30667248 2.3470001 137 147 154
-0.20862225 -0.28194314 2.1140001 164 171 167
-0.20187204 -0.28062171 2.1040001 92 100 93
-0.19564191 -0.27996674 2.0990002 45 53 46
-0.18943849 -0.27931139 2.0940001 46 51 40
-0.18343724 -0.27892247 2.0910001 43 48 37
-0.17728184 -0.27826649 2.0860002 46 50 42
-0.17164661 -0.27841043 2.0870001 49 53 45
-0.16616435 -0.27882099 2.0900002 56 60 52
-0.16074173 -0.27936459 2.0940001 101 105 98
-0.15588881 -0.28097528 2.1060002 36 37 31
-0.15025669 -0.28125152 2.108 38 42 34
-0.14433891 -0.28099376 2.1060002 59 64 53
-0.13849734 -0.28086907 2.105 64 52 42
-0.13278686 -0.28101093 2.1060002 121 97 88
-0.12713069 -0.28128582 2.108 97 88 77
-0.12152064 -0.28169388 2.1110001 48 44 33
-0.11583885 -0.28196821 2.1130002 41 41 33
-0.11009355 -0.28210869 2.1140001 39 43 35
-0.10429303 -0.2821154 2.1140001 36 40 32
-0.098538682 -0.28225517 2.115 35 40 29
-0.092734635 -0.28226119 2.115 31 36 25
-0.08705353 -0.28266722 2.118 32 37 26
-0.081240565 -0.28267252 2.118 29 34 23
-0.075569727 -0.28321135 2.1220002 27 32 21
-0.069745161 -0.28321594 2.1220002 30 33 21
-0.064010687 -0.28362051 2.125 27 30 18
-0.058177374 -0.28362441 2.125 24 27 15
-0.052393101 -0.2838949 2.1270001 23 26 14
-0.046575744 -0.28403145 2.128 24 27 15
-0.040791009 -0.28443465 2.131 25 27 17
-0.034989636 -0.28483748 2.1340001 24 27 15
-0.029158004 -0.28510648 2.1360002 22 27 16
-0.023315275 -0.28537512 2.138 22 27 16
-0.017461471 -0.28564337 2.1400001 23 28 17
-0.011596619 -0.28591123 2.1420002 23 28 17
-0.0057260729 -0.28644574 2.1460001 22 27 16
0.00016622785 -0.28657937 2.1470001 23 27 19
0.0060668425 -0.2868461 2.1490002 24 29 18
0.01196171 -0.28671205 2.148 22 27 16
0.017892612 -0.28724506 2.1520002 25 30 19
0.023845408 -0.28777763 2.1560001 25 30 19
0.02979246 -0.28804284 2.158 29 31 21
0.035733834 -0.2881743 2.1590002 30 32 24
0.041699849 -0.28843874 2.161 29 33 26
0.04774281 -0.28910327 2.1660001 34 38 31
0.053862616 -0.29003435 2.1730001 36 41 37
0.060020648 -0.29096505 2.1800001 33 38 34
0.066216864 -0.29189533 2.187 30 35 31
0.072484285 -0.29295874 2.1950002 26 32 25
0.078795344 -0.29402167 2.2030001 23 29 22
0.085150011 -0.29508421 2.2110002 22 28 20
0.091548264 -0.2961463 2.2190001 22 28 20
0.097990073 -0.29720798 2.227 22 28 20
0.10442869 -0.29813588 2.2340002 25 31 23
0.1109053 -0.29906327 2.2410002 25 33 25
0.11752437 -0.30025718 2.25 35 43 35
0.12419239 -0.30145064 2.2590001 48 56 49
0.1311402 -0.30317745 2.2720001 59 67 60
0.13840067 -0.30543748 2.289 62 68 61
0.14569069 -0.30756366 2.3050001 64 70 63
0.15287012 -0.30928901 2.3180001 61 65 58
0.15970808 -0.31021333 2.325 41 45 38
0.1665839 -0.31113723 2.332 39 42 38
0.17312656 -0.31139365 2.3340001 35 41 43
0.17952575 -0.31138283 2.3340001 39 45 48
0.18568529 -0.31097144 2.3310001 51 62 67
0.19166291 -0.31029296 2.3260002 143 153 160
-0.21137275 -0.29153639 2.1420002 164 171 167
-0.20281924 -0.28773794 2.1140001 166 174 167
-0.19637567 -0.28679731 2.1070001 41 49 42
-0.19042206 -0.28653687 2.105 43 50 39
-0.18421558 -0.28586778 2.1000001 47 54 43
-0.17795083 -0.2850621 2.0940001 46 50 42
-0.17155387 -0.28398386 2.0860002 51 55 47
-0.16575661 -0.28385812 2.085 51 55 47
-0.16011776 -0.28400439 2.0860002 42 46 38
-0.15499097 -0.28510338 2.0940001 33 37 29
-0.14967717 -0.28592983 2.1000001 33 38 27
-0.14378168 -0.28566673 2.098 74 65 52
-0.13809398 -0.28581172 2.0990002 108 80 69
-0.13240029 -0.28595638 2.1000001 122 92 81
-0.12688152 -0.28650925 2.1040001 59 55 44
-0.12122522 -0.28678945 2.1060002 44 45 33
-0.11561229 -0.28720546 2.1090002 45 45 37
-0.10987832 -0.28734884 2.1100001 38 42 34
-0.10408911 -0.2873556 2.1100001 40 45 34
-0.098392688 -0.2876344 2.112 40 45 34
-0.092641085 -0.28777674 2.1130002 38 43 32
-0.087006919 -0.28832725 2.1170001 38 43 32
-0.081197053 -0.28833261 2.1170001 37 42 30
-0.075493686 -0.28874621 2.1200001 37 42 30
-0.06974072 -0.28902331 2.1220002 33 38 26
-0.063976489 -0.28929996 2.1240001 33 36 24
-0.058201045 -0.28957635 2.1260002 30 33 21
-0.052389752 -0.28971609 2.1270001 28 31 19
-0.046572767 -0.28985548 2.128 29 32 20
-0.04076926 -0.29013073 2.1300001 28 31 19
-0.034954607 -0.29040557 2.1320002 29 32 20
-0.029142486 -0.29081628 2.135 28 31 19
-0.023291973 -0.2909542 2.1360002 28 31 19
-0.017452193 -0.29136416 2.1390002 28 31 19
-0.011585047 -0.29150134 2.1400001 27 32 20
-0.0057230373 -0.29218295 2.1450002 24 29 18
0.00016613978 -0.29231936 2.1460001 23 28 17
0.0060692769 -0.29286402 2.1500001 22 27 16
0.01197208 -0.29286346 2.1500001 23 25 15
0.017899778 -0.29327109 2.1530001 22 25 13
0.023854939 -0.29381463 2.1570001 24 27 15
0.02980436 -0.29408532 2.1590002 22 25 13
0.035748094 -0.29421943 2.1600001 23 25 15
0.041677885 -0.2942169 2.1600001 26 28 20
0.04771772 -0.29489511 2.1650002 33 37 29
0.053859174 -0.29598153 2.1730001 23 27 20
0.060071874 -0.29720369 2.1820002 21 27 20
0.066273205 -0.2981531 2.1890001 20 26 18
0.072545707 -0.29923823 2.197 20 27 16
0.078861862 -0.30032301 2.2050002 26 33 22
0.085221618 -0.30140737 2.2130001 32 39 28
0.091583714 -0.30235511 2.22 38 45 34
0.097983867 -0.30330238 2.227 40 47 36
0.10437534 -0.30411312 2.233 43 49 41
0.11084881 -0.30505958 2.24 51 58 47
0.11741251 -0.30614182 2.2480001 54 61 50
0.12407463 -0.30735978 2.2570002 57 63 55
0.13084339 -0.30871353 2.2670002 56 62 55
0.13790835 -0.31061152 2.2810001 58 64 56
0.14498638 -0.3123728 2.2940001 62 68 61
0.15226707 -0.31440595 2.309 59 63 55
0.15914868 -0.31548551 2.3170002 65 67 59
0.16614501 -0.31670079 2.3260002 58 62 55
0.172745 -0.31709859 2.329 38 43 40
0.17928395 -0.31735998 2.3310001 41 48 47
0.18535525 -0.31680408 2.3270001 45 54 59
0.1922279 -0.31760922 2.3330002 144 152 159
-0.20184749 -0.29213098 2.1040001 65 73 66
-0.19645679 -0.29269871 2.108 36 44 37
-0.19013894 -0.29187757 2.102 46 52 44
-0.18402871 -0.29133376 2.098 45 51 43
-0.1775149 -0.2900953 2.089 48 54 46
-0.17178987 -0.29010621 2.089 47 53 45
-0.16566677 -0.28942245 2.0840001 49 53 45
-0.160338 -0.29012713 2.089 45 47 37
-0.1546852 -0.29027596 2.0900002 35 36 22
-0.14931139 -0.29098004 2.095 49 43 27
-0.14356701 -0.29098937 2.095 94 67 52
-0.13801944 -0.29141504 2.098 109 79 64
-0.13232884 -0.29156256 2.0990002 106 88 73
-0.12669253 -0.29184866 2.1010001 49 38 25
-0.12092969 -0.29185662 2.1010001 45 43 32
-0.11522119 -0.29200312 2.102 44 46 38
-0.1095068 -0.29214928 2.1030002 41 45 37
-0.10378648 -0.29229507 2.1040001 40 44 36
-0.098200031 -0.29285726 2.108 43 48 37
-0.0925036 -0.29314134 2.1100001 42 47 36
-0.086878024 -0.29370287 2.1140001 41 46 35
-0.081115104 -0.29384723 2.115 37 42 31
-0.075417601 -0.29426914 2.118 36 41 29
-0.069670476 -0.29455176 2.1200001 39 44 33
-0.063942231 -0.29497293 2.1230001 34 39 28
-0.058224641 -0.2955327 2.1270001 34 39 27
-0.052386355 -0.29553631 2.1270001 35 40 28
-0.046591636 -0.29581743 2.1290002 34 39 27
-0.040747475 -0.2958203 2.1290002 36 39 25
-0.03493594 -0.29610065 2.131 31 34 20
-0.029126942 -0.29651961 2.1340001 32 35 21
-0.023290457 -0.29679921 2.1360002 30 33 21
-0.017451057 -0.29721743 2.1390002 30 33 21
-0.011589706 -0.29749626 2.141 33 36 24
-0.005725333 -0.29819161 2.1460001 30 33 21
0.00016628379 -0.29846966 2.148 32 35 21
0.0060717035 -0.2988863 2.151 31 34 22
0.011976868 -0.29888576 2.151 33 36 24
0.017898612 -0.29916266 2.1530001 30 33 21
0.023842329 -0.29957816 2.1560001 29 32 20
0.029802423 -0.29999328 2.1590002 34 35 23
0.035762314 -0.30026898 2.161 31 32 20
0.04169447 -0.30026641 2.161 29 32 20
0.047714625 -0.30081937 2.1650002 35 38 26
0.053830899 -0.30178863 2.1720002 29 34 22
0.060040452 -0.30303541 2.181 33 38 26
0.066238642 -0.30400392 2.1880002 36 41 29
0.072541021 -0.30524981 2.197 37 42 28
0.078964069 -0.30677325 2.2080002 40 45 33
0.085331649 -0.30787933 2.2160001 42 47 36
0.091660321 -0.30870724 2.2220001 47 52 41
0.097933576 -0.30925682 2.2260001 51 56 45
0.10427516 -0.3099449 2.2310002 52 58 50
0.11074275 -0.31091043 2.2380002 50 56 48
0.11735277 -0.31215337 2.2470002 48 55 44
0.12412168 -0.31367368 2.2580001 51 57 49
0.13077733 -0.31477678 2.266 50 56 48
0.13753684 -0.3160184 2.2750001 54 60 52
0.14447159 -0.31753734 2.286 58 62 54
0.15166399 -0.31947255 2.3000002 59 61 53
0.15865786 -0.32085168 2.3100002 69 69 61
0.16563454 -0.3220914 2.319 93 92 86
0.17236331 -0.32277516 2.3240001 93 84 81
0.17896508 -0.32318071 2.3270001 47 43 41
0.18526401 -0.32303032 2.3260002 75 84 89
0.19287504 -0.32510158 2.3410001 149 155 161
-0.21954487 -0.30649391 2.1650002 164 172 169
-0.20345329 -0.29192528 2.062 164 171 167
-0.19355564 -0.29407388 2.0770001 38 46 39
-0.18867986 -0.29536024 2.0860002 43 51 44
-0.18305235 -0.29551354 2.0870001 45 51 43
-0.17741874 -0.29566655 2.0880001 44 50 42
-0.17227238 -0.29666889 2.095 45 51 43
-0.16645116 -0.29653808 2.0940001 49 54 43
-0.16109529 -0.29725668 2.0990002 51 52 40
-0.15504535 -0.2967003 2.095 39 35 19
-0.14923058 -0.29656845 2.0940001 66 56 39
-0.14342077 -0.29643628 2.0930002 89 60 45
-0.13787901 -0.29687026 2.0960002 111 82 67
-0.13225727 -0.29716226 2.098 108 90 75
-0.12662408 -0.297454 2.1000001 46 42 31
-0.12080676 -0.2973204 2.0990002 43 46 34
-0.11499448 -0.2971864 2.098 40 45 34
-0.10934348 -0.29747707 2.1000001 38 43 32
-0.1037304 -0.29790902 2.1030002 38 43 32
-0.098100491 -0.29834065 2.1060002 40 45 34
-0.092366055 -0.29848853 2.1070001 44 46 36
-0.086707965 -0.29891941 2.1100001 43 45 35
-0.081033103 -0.29934996 2.1130002 38 43 32
-0.075305842 -0.29963845 2.115 38 43 32
-0.06956733 -0.29992661 2.1170001 43 48 37
-0.063787445 -0.30007267 2.118 35 40 29
-0.058111325 -0.30078512 2.1230001 35 40 29
-0.052309021 -0.30093041 2.1240001 39 44 32
-0.046566676 -0.30150044 2.128 40 45 33
-0.040706512 -0.30136168 2.1270001 42 47 35
-0.034900852 -0.30164757 2.1290002 41 46 32
-0.02905678 -0.30164969 2.1290002 41 46 34
-0.023245307 -0.30207646 2.1320002 46 49 37
-0.017417273 -0.30250287 2.135 42 45 33
-0.011572703 -0.30292892 2.138 37 40 28
-0.0057196193 -0.30377963 2.1440001 36 39 27
0.000166118 -0.30406317 2.1460001 35 38 26
0.0060684802 -0.30462971 2.1500001 35 38 26
0.011970508 -0.30462909 2.1500001 34 37 25
0.01788912 -0.30491152 2.1520002 30 32 22
0.023818638 -0.30519348 2.154 31 33 23
0.029772848 -0.30561677 2.1570001 39 42 30
0.035726868 -0.30589795 2.1590002 28 31 19
0.041672427 -0.30603707 2.1600001 27 30 18
0.047689438 -0.30660081 2.164 43 46 34
0.053777792 -0.30744755 2.1700001 41 46 34
0.059926394 -0.30843556 2.177 41 46 34
0.06617374 -0.30970651 2.1860001 41 46 34
0.072503239 -0.31111866 2.1960001 43 48 36
0.078887366 -0.31253043 2.2060001 42 47 35
0.085210539 -0.31351668 2.2130001 48 53 42
0.09148933 -0.31421921 2.2180002 48 53 42
0.097839206 -0.31506303 2.2240002 48 53 42
0.10422162 -0.31590629 2.23 44 48 40
0.11073554 -0.31703258 2.2380002 44 50 42
0.11734517 -0.31830004 2.2470002 46 52 44
0.12405869 -0.3197087 2.2570002 47 53 45
0.13065347 -0.32069191 2.2640002 50 54 46
0.13728617 -0.32167476 2.2710001 49 53 45
0.14395674 -0.32265708 2.2780001 52 56 49
0.15099487 -0.32434723 2.2900002 58 60 52
0.15802957 -0.32589519 2.3010001 69 66 59
0.16505261 -0.32730108 2.3110001 72 69 63
0.17198151 -0.32842323 2.319 118 105 100
0.17849229 -0.3286953 2.3210001 66 59 56
0.18493369 -0.32882524 2.322 40 37 40
0.19203901 -0.33008775 2.3310001 144 143 149
-0.21689473 -0.30866072 2.1390002 167 175 174
-0.20807764 -0.30434501 2.1090002 162 170 167
-0.19683418 -0.29613206 2.052 155 162 158
-0.19289112 -0.2987422 2.0700002 37 45 38
-0.18839651 -0.30063057 2.0830002 45 53 46
-0.1834792 -0.30194139 2.092 45 51 44
-0.17783225 -0.30209735 2.0930002 47 53 45
-0.17226136 -0.30239731 2.095 48 54 46
-0.16691737 -0.30313003 2.1000001 47 52 41
-0.16123837 -0.303285 2.1010001 43 50 38
-0.15518335 -0.30271789 2.0970001 57 51 34
-0.14922091 -0.30229473 2.0940001 80 66 49
-0.14347996 -0.30230427 2.0940001 88 71 52
-0.13780424 -0.30245787 2.095 98 80 64
-0.13218559 -0.3027555 2.0970001 89 73 57
-0.12649518 -0.30290839 2.098 39 40 26
-0.12062619 -0.3026278 2.0960002 43 42 28
-0.1148225 -0.30249116 2.095 37 42 30
-0.10912801 -0.302643 2.0960002 39 44 32
-0.10352627 -0.30308324 2.0990002 39 44 32
-0.097907677 -0.30352309 2.102 39 42 30
-0.092228428 -0.30381826 2.1040001 42 44 34
-0.08653786 -0.30411303 2.1060002 42 44 34
-0.080874331 -0.30455187 2.1090002 39 44 33
-0.075158425 -0.30484587 2.1110001 38 43 32
-0.06946411 -0.3052839 2.1140001 43 47 39
-0.063722968 -0.30557722 2.1160002 39 43 35
-0.05802533 -0.30615896 2.1200001 39 44 33
-0.052256279 -0.30645153 2.1220002 40 45 34
-0.046497919 -0.30688807 2.125 41 46 34
-0.040646378 -0.3067466 2.1240001 42 47 35
-0.03486573 -0.3071824 2.1270001 41 46 34
-0.029041186 -0.30732897 2.128 46 51 39
-0.023243748 -0.30790842 2.1320002 45 50 38
-0.017416105 -0.30834305 2.135 45 48 36
-0.011577339 -0.30892172 2.1390002 43 46 34
-0.0057165679 -0.30949998 2.1430001 44 47 35
0.00016595203 -0.30964461 2.1440001 43 46 34
0.0060567847 -0.30993327 2.1460001 44 46 36
0.011947438 -0.30993265 2.1460001 41 46 35
0.01785467 -0.31022045 2.148 35 40 29
0.023783872 -0.31065235 2.151 33 37 29
0.029729446 -0.31108379 2.154 36 41 30
0.035707928 -0.31165928 2.158 37 42 31
0.041688934 -0.31208992 2.161 28 33 22
0.047686249 -0.31252018 2.164 31 36 24
0.053749423 -0.31323889 2.1690001 43 48 36
0.059894875 -0.31424594 2.1760001 48 53 41
0.066139065 -0.31554145 2.1850002 52 57 46
0.072399378 -0.31669208 2.1930001 53 58 46
0.078703329 -0.31784233 2.2010002 50 55 44
0.085089378 -0.31913644 2.21 48 53 42
0.091483273 -0.32028583 2.2180002 48 53 42
0.097788736 -0.3210015 2.223 42 46 38
0.10416801 -0.32186121 2.2290001 45 49 41
0.1105798 -0.32272041 2.2350001 44 50 42
0.11728521 -0.32430115 2.2460001 46 52 44
0.12394059 -0.32559264 2.2550001 48 52 44
0.13052948 -0.32659492 2.2620001 46 50 42
0.13709582 -0.32745242 2.2680001 48 52 44
0.14369458 -0.32830945 2.2740002 52 56 49
0.1505235 -0.32959911 2.283 54 55 49
0.15760726 -0.33132148 2.2950001 62 62 54
0.16475625 -0.33304331 2.3070002 78 73 67
0.17189625 -0.33462027 2.3180001 112 107 101
0.17832696 -0.33475325 2.319 70 65 59
0.18444398 -0.33430848 2.3160002 239 235 233
-0.19989097 -0.3064467 2.0840001 175 182 179
-0.19520818 -0.30807695 2.095 45 52 48
-0.19046448 -0.30970708 2.1060002 40 46 39
-0.18478286 -0.30986631 2.1070001 55 59 52
-0.1782455 -0.3085545 2.098 50 52 44
-0.17290793 -0.30930138 2.1030002 54 56 48
-0.16666804 -0.30843002 2.0970001 50 53 41
-0.16107437 -0.30873498 2.0990002 36 33 19
-0.15502517 -0.308157 2.095 62 48 31
-0.14921109 -0.30801997 2.0940001 87 63 47
-0.14333346 -0.30773544 2.092 93 71 55
-0.1376636 -0.30789191 2.0930002 102 86 70
-0.13198775 -0.30804798 2.0940001 47 37 20
-0.12630592 -0.3082037 2.095 39 35 19
-0.12050307 -0.30806485 2.0940001 37 36 20
-0.11476005 -0.30807275 2.0940001 37 40 26
-0.10906866 -0.30822739 2.095 35 38 24
-0.10347003 -0.30867592 2.098 37 40 28
-0.097807966 -0.30897695 2.1000001 37 40 28
-0.092090748 -0.30913049 2.1010001 38 40 32
-0.086367682 -0.30928367 2.102 40 42 34
-0.0807155 -0.30973077 2.105 39 41 31
-0.075010955 -0.31003034 2.1070001 40 45 34
-0.069328003 -0.31047666 2.1100001 40 45 34
-0.063628323 -0.31092262 2.1130002 41 46 35
-0.057884566 -0.31122103 2.115 40 45 34
-0.052104995 -0.31137195 2.1160002 44 49 38
-0.046341613 -0.31166959 2.118 43 48 36
-0.040586218 -0.31211403 2.1210001 46 51 39
-0.03481419 -0.31255805 2.1240001 42 47 35
-0.029025566 -0.31300172 2.1270001 39 42 30
-0.023220366 -0.31344497 2.1300001 39 42 30
-0.017398611 -0.31388786 2.1330001 37 40 28
-0.011560316 -0.31433031 2.1360002 37 39 29
-0.0057081776 -0.31491953 2.1400001 37 40 28
0.00016578598 -0.31521407 2.1420002 37 39 29
0.0060535502 -0.31565532 2.1450002 42 44 34
0.011941059 -0.3156547 2.1450002 43 48 37
0.017853456 -0.31609511 2.148 37 42 31
0.023760144 -0.31624091 2.1490002 33 37 29
0.029699827 -0.31668052 2.1520002 35 39 31
0.03563932 -0.31697258 2.154 47 52 41
0.041608945 -0.31741142 2.1570001 38 43 32
0.047594883 -0.31784987 2.1600001 31 36 25
0.053646669 -0.31858218 2.1650002 45 49 41
0.059808254 -0.31975549 2.1730001 48 54 46
0.066013515 -0.32092836 2.181 42 48 40
0.072262444 -0.32210088 2.1890001 44 49 38
0.078483492 -0.32297859 2.1950002 45 49 41
0.084852651 -0.32429731 2.204 49 54 43
0.091270909 -0.32561561 2.2130001 50 55 44
0.097562239 -0.32634491 2.2180002 50 55 44
0.10406756 -0.32766229 2.227 48 52 44
0.11057241 -0.32883212 2.2350001 50 55 44
0.11712073 -0.3300015 2.243 50 54 46
0.12360258 -0.33087614 2.2490001 46 50 42
0.13011688 -0.33175033 2.2550001 45 49 41
0.13672405 -0.33277121 2.2620001 50 54 46
0.14343233 -0.33393881 2.2700002 55 56 50
0.15024985 -0.33525297 2.279 51 55 48
0.15725352 -0.33686087 2.2900002 56 57 51
0.16438834 -0.33861539 2.302 72 71 65
0.17144006 -0.34007522 2.312 88 87 81
0.17793086 -0.34035793 2.3140001 42 41 35
0.18307818 -0.3381398 2.299 36 35 29
-0.20041309 -0.32219076 2.151 95 102 99
-0.1933459 -0.32025641 2.138 50 53 49
-0.18591078 -0.31757259 2.1200001 48 49 43
-0.17865857 -0.315038 2.1030002 48 45 38
-0.17256768 -0.31445041 2.0990002 43 41 31
-0.16625966 -0.31341293 2.092 39 35 21
-0.16075677 -0.31387329 2.095 43 35 19
-0.15501486 -0.31388381 2.095 78 56 40
-0.14934367 -0.31404382 2.0960002 94 66 48
-0.14346094 -0.31375402 2.0940001 94 76 60
-0.13772015 -0.31376347 2.0940001 86 70 54
-0.13191587 -0.31362271 2.0930002 44 36 19
-0.12617686 -0.31363145 2.0930002 37 34 18
-0.12049494 -0.31378967 2.0940001 38 37 21
-0.1146975 -0.31364781 2.0930002 33 36 22
-0.10900922 -0.31380525 2.0940001 33 36 22
-0.10336439 -0.31411222 2.0960002 35 38 26
-0.097661614 -0.31426895 2.0970001 35 38 26
-0.091996826 -0.31457517 2.0990002 36 40 32
-0.086279623 -0.31473115 2.1000001 36 40 32
-0.080594972 -0.31503659 2.102 39 41 31
-0.07489904 -0.31534171 2.1040001 41 43 33
-0.0692247 -0.31579632 2.1070001 40 42 32
-0.063563734 -0.31640038 2.1110001 37 39 29
-0.057825871 -0.31670439 2.1130002 41 43 33
-0.05205217 -0.31685802 2.1140001 41 43 33
-0.046272792 -0.31701133 2.115 41 46 34
-0.040545158 -0.3176139 2.1190002 40 45 33
-0.034795411 -0.31821606 2.1230001 38 41 27
-0.029037217 -0.31896767 2.128 36 39 25
-0.02321877 -0.31926933 2.1300001 35 38 24
-0.017397411 -0.31972039 2.1330001 35 38 26
-0.011554107 -0.32002115 2.135 37 39 29
-0.0056997822 -0.32032156 2.1370001 39 41 31
0.00016554238 -0.32062155 2.1390002 42 44 34
0.0060474891 -0.32122087 2.1430001 40 42 34
0.011940237 -0.32152006 2.1450002 42 44 34
0.017852228 -0.3219687 2.148 40 45 34
0.023758508 -0.32211715 2.1490002 35 40 29
0.029697785 -0.32256499 2.1520002 31 36 25
0.035620324 -0.3227126 2.1530001 38 43 32
0.041625377 -0.32345936 2.158 51 56 45
0.047591612 -0.32375604 2.1600001 37 42 31
0.053692538 -0.32480177 2.1670001 38 42 34
0.059804153 -0.32569718 2.1730001 52 56 48
0.066009 -0.32689187 2.181 47 53 45
0.072191484 -0.32778642 2.187 50 54 46
0.078406617 -0.32868049 2.1930001 49 53 45
0.084731393 -0.32987392 2.2010002 52 57 46
0.091140963 -0.33121672 2.21 54 59 48
0.097511612 -0.3322593 2.217 58 63 52
0.10392032 -0.33330151 2.2240002 54 59 48
0.1104165 -0.3344931 2.2320001 54 59 48
0.11695617 -0.33568424 2.24 54 58 50
0.12337441 -0.33642536 2.2450001 51 55 47
0.12987733 -0.33731592 2.2510002 52 56 48
0.13641268 -0.33820599 2.2570002 52 56 48
0.14329632 -0.33984479 2.2680001 56 57 51
0.15017387 -0.34133333 2.2780001 52 56 49
0.15703703 -0.34267151 2.2870002 53 55 47
0.16394897 -0.34400922 2.296 68 69 63
0.1706872 -0.344897 2.302 76 77 71
0.17738086 -0.34563452 2.3070002 24 28 21
-0.20217007 -0.33096644 2.1700001 136 141 137
-0.19559383 -0.32991204 2.1630001 59 58 52
-0.1878276 -0.32672173 2.1420002 65 62 55
-0.18009083 -0.32337824 2.1200001 56 51 40
-0.17329602 -0.32155958 2.108 61 52 41
-0.16672535 -0.32004556 2.098 74 59 44
-0.16097614 -0.32005659 2.098 74 58 43
-0.15515241 -0.31991473 2.0970001 85 63 47
-0.1493336 -0.31977254 2.0960002 87 67 51
-0.14338273 -0.31932479 2.0930002 91 75 59
-0.13751352 -0.31902921 2.0910001 54 40 23
-0.13184386 -0.31919095 2.092 38 34 17
-0.1260477 -0.31904721 2.0910001 38 36 18
-0.12037164 -0.31920826 2.092 33 35 17
-0.11458006 -0.31906375 2.0910001 33 37 20
-0.10889764 -0.31922406 2.092 34 38 21
-0.10320935 -0.31938395 2.0930002 36 39 25
-0.097561747 -0.31969607 2.095 33 36 24
-0.091815181 -0.31970266 2.095 34 39 28
-0.08615043 -0.32001403 2.0970001 33 38 26
-0.080474384 -0.32032505 2.0990002 36 39 27
-0.074822657 -0.32078826 2.102 40 43 31
-0.069121338 -0.32109851 2.1040001 39 42 30
-0.063499115 -0.32186621 2.1090002 39 42 28
-0.057767123 -0.32217571 2.1110001 35 38 24
-0.052048553 -0.32263741 2.1140001 37 40 26
-0.046247691 -0.32264081 2.1140001 38 41 27
-0.040523201 -0.32325435 2.118 35 38 24
-0.034727432 -0.32340962 2.1190002 38 41 27
-0.028994258 -0.32432759 2.125 36 39 25
-0.02318445 -0.32463467 2.1270001 34 37 23
-0.017371729 -0.32509395 2.1300001 39 42 30
-0.011537069 -0.32540026 2.1320002 40 43 31
-0.005691384 -0.32570606 2.1340001 42 44 34
0.00016537604 -0.32616419 2.1370001 39 44 33
0.0060414239 -0.32677445 2.141 45 47 37
0.011933836 -0.32723171 2.1440001 46 48 38
0.017842673 -0.32768857 2.1470001 46 49 37
0.023756851 -0.32799235 2.1490002 42 45 33
0.029668115 -0.32814309 2.1500001 37 40 28
0.035584755 -0.32829344 2.151 34 37 25
0.041545324 -0.32874855 2.154 39 41 31
0.04752221 -0.32920334 2.1570001 53 55 47
0.053614475 -0.33026811 2.164 37 41 33
0.059800003 -0.33163774 2.1730001 48 52 45
0.065974161 -0.33270168 2.1800001 44 48 40
0.072153479 -0.33361256 2.1860001 48 52 44
0.078293942 -0.33421776 2.1900001 52 56 48
0.084571555 -0.33528036 2.197 53 58 47
0.090928487 -0.3364951 2.2050002 52 57 46
0.097285002 -0.33755681 2.2120001 55 60 49
0.10372627 -0.33877063 2.22 57 62 51
0.11021106 -0.33998403 2.2280002 58 63 52
0.11663489 -0.34089178 2.2340002 58 60 50
0.12298132 -0.3414939 2.2380002 56 58 50
0.12946461 -0.34240073 2.2440002 56 60 52
0.13604076 -0.3434597 2.2510002 52 56 48
0.1429707 -0.34528106 2.263 59 63 56
0.15003183 -0.34725454 2.276 58 64 57
0.15688907 -0.3486172 2.2850001 50 56 48
0.16365232 -0.34967428 2.2920001 55 63 56
0.16971187 -0.34920529 2.289 117 125 118
0.17606194 -0.34934619 2.2900002 136 143 139
-0.20742756 -0.33579469 2.1630001 165 172 169
-0.20374033 -0.3395344 2.187 164 171 167
-0.19684663 -0.33799532 2.177 50 54 47
-0.18913022 -0.33490309 2.1570001 56 51 44
-0.18084317 -0.33056813 2.1290002 63 56 45
-0.17344874 -0.32762998 2.1100001 65 54 41
-0.16695243 -0.32624406 2.1010001 76 60 45
-0.1611954 -0.32625526 2.1010001 82 64 48
-0.15551175 -0.32642138 2.102 83 61 45
-0.14960836 -0.32612127 2.1000001 90 70 54
-0.14350989 -0.3253549 2.095 83 69 52
-0.13750407 -0.32474333 2.0910001 45 33 16
-0.1317718 -0.32475266 2.0910001 34 32 14
-0.12603901 -0.32476163 2.0910001 32 32 14
-0.12024826 -0.32461488 2.0900002 31 33 15
-0.11446252 -0.32446766 2.089 31 35 18
-0.10878599 -0.32463083 2.0900002 34 38 21
-0.10315286 -0.32494888 2.092 32 35 21
-0.097461827 -0.32511121 2.0930002 34 37 23
-0.091808774 -0.32542852 2.095 36 39 27
-0.086144403 -0.32574543 2.0970001 33 38 26
-0.080430418 -0.32590666 2.098 34 37 25
-0.074746236 -0.32622281 2.1000001 38 41 29
-0.069050789 -0.32653856 2.102 41 44 32
-0.063434444 -0.32732001 2.1070001 38 39 25
-0.0577357 -0.32779035 2.1100001 37 38 24
-0.052044891 -0.3284156 2.1140001 40 41 27
-0.046244435 -0.32841909 2.1140001 40 41 27
-0.040501215 -0.32888824 2.1170001 39 42 28
-0.034708589 -0.32904622 2.118 40 43 29
-0.028964927 -0.32982531 2.1230001 37 42 28
-0.023139214 -0.32982719 2.1230001 39 44 30
-0.017337883 -0.33029473 2.1260002 39 44 32
-0.011514608 -0.33060643 2.128 43 48 36
-0.0056856479 -0.33122846 2.1320002 43 48 37
0.00016505484 -0.33138403 2.1330001 43 48 37
0.0060268897 -0.3318499 2.1360002 46 51 40
0.01191073 -0.33247066 2.1400001 45 50 38
0.017808173 -0.33293572 2.1430001 44 47 35
0.023722013 -0.33340034 2.1460001 38 41 29
0.029624628 -0.33355379 2.1470001 40 43 31
0.035582248 -0.3341729 2.151 37 40 28
0.0415424 -0.33463624 2.154 37 39 29
0.047518861 -0.33509913 2.1570001 41 43 35
0.053585935 -0.33602771 2.1630001 42 43 37
0.059740759 -0.3372665 2.171 46 47 41
0.065939263 -0.33850485 2.1790001 44 48 41
0.072049394 -0.33912134 2.1830001 48 52 44
0.07821697 -0.33989277 2.1880002 47 51 43
0.084411666 -0.34066373 2.1930001 48 53 42
0.09079843 -0.34205568 2.2020001 47 52 41
0.097190261 -0.34329176 2.21 53 55 45
0.10357888 -0.34437203 2.217 57 59 49
0.10990661 -0.34514123 2.2220001 57 59 49
0.11626136 -0.34590995 2.227 53 55 45
0.12264311 -0.34667829 2.2320001 54 56 46
0.12922488 -0.34791204 2.24 54 59 48
0.13585009 -0.34914538 2.2480001 54 58 50
0.14277132 -0.35099944 2.26 61 65 57
0.14988972 -0.35316366 2.2740002 62 68 60
0.15687834 -0.35486138 2.2850001 54 62 54
0.16371253 -0.35609278 2.2930002 54 62 55
0.16955206 -0.35514957 2.2870002 139 147 140
0.17382054 -0.35110033 2.2610002 136 143 139
-0.21067391 -0.34707412 2.197 164 172 169
-0.20531017 -0.34819409 2.204 138 145 141
-0.1980087 -0.34599599 2.1900001 47 53 46
-0.19008182 -0.34253347 2.1680002 49 49 39
-0.18201996 -0.33859619 2.1430001 59 52 39
-0.17466985 -0.33576435 2.125 65 54 39
-0.16789451 -0.33388004 2.1130002 80 62 46
-0.16156791 -0.33278534 2.1060002 80 60 44
-0.15557502 -0.33232227 2.1030002 81 61 45
-0.14952679 -0.33170077 2.0990002 84 66 50
-0.14336295 -0.33076274 2.0930002 54 42 25
-0.13749452 -0.33045647 2.0910001 40 32 15
-0.13163657 -0.3301498 2.089 33 31 13
-0.12596995 -0.3303169 2.0900002 32 34 16
-0.1201823 -0.33016744 2.089 33 35 17
-0.11445451 -0.33017576 2.089 33 35 17
-0.10867424 -0.33002555 2.0880001 31 35 18
-0.10299768 -0.33019111 2.089 33 37 20
-0.097361833 -0.33051434 2.0910001 35 38 24
-0.091758467 -0.33099526 2.0940001 34 37 23
-0.08609724 -0.33131775 2.0960002 33 36 24
-0.080386378 -0.33148172 2.0970001 31 34 22
-0.07463415 -0.33148721 2.0970001 37 38 26
-0.068980187 -0.33196658 2.1000001 43 44 30
-0.063369721 -0.33276173 2.105 40 41 27
-0.057676863 -0.33324027 2.108 39 41 24
-0.051991943 -0.33387652 2.112 39 40 26
-0.046197396 -0.3338801 2.112 42 45 33
-0.040440932 -0.33419937 2.1140001 43 46 32
-0.034656953 -0.33436015 2.115 45 50 38
-0.028908288 -0.33499482 2.1190002 40 47 35
-0.023104867 -0.33515477 2.1200001 40 47 35
-0.017312178 -0.33563054 2.1230001 42 47 35
-0.011502963 -0.33610579 2.1260002 39 46 35
-0.0056772414 -0.33658072 2.1290002 46 51 40
0.00016488829 -0.3368971 2.131 38 43 32
0.0060123508 -0.33689684 2.131 38 43 31
0.011882051 -0.33752856 2.135 45 48 36
0.017773662 -0.33815992 2.1390002 46 49 35
0.023698209 -0.33894888 2.1440001 40 43 29
0.029581118 -0.33894694 2.1440001 37 40 26
0.035530079 -0.33957696 2.148 42 45 33
0.041481581 -0.34004846 2.151 39 41 31
0.047493447 -0.34083572 2.1560001 40 44 36
0.053532571 -0.34162253 2.161 43 47 40
0.059681475 -0.34288317 2.1690001 43 47 40
0.065813541 -0.34382716 2.1750002 43 47 39
0.071978271 -0.34477073 2.181 42 47 36
0.078104183 -0.34539771 2.1850002 42 47 36
0.084367208 -0.34649843 2.1920002 37 42 30
0.090709545 -0.34775674 2.2 38 43 31
0.097095452 -0.34901467 2.2080002 39 42 30
0.10347816 -0.35011402 2.2150002 37 39 29
0.10979996 -0.35089675 2.22 41 43 33
0.11609659 -0.35152104 2.2240002 44 46 36
0.12252462 -0.35246092 2.23 48 50 42
0.12904279 -0.35355842 2.237 45 49 41
0.13578019 -0.35512966 2.2470002 47 53 45
0.14250873 -0.35654229 2.256 59 65 57
0.14961568 -0.35874462 2.2700002 62 70 62
0.15659285 -0.36047226 2.2810001 55 63 55
0.16355844 -0.36204147 2.2910001 58 66 59
0.1696886 -0.36171383 2.289 73 81 74
-0.21324851 -0.35741338 2.2240002 162 172 169
-0.20613448 -0.3556599 2.2130001 135 142 138
-0.19808556 -0.35213801 2.1910002 46 52 45
-0.19033176 -0.34893695 2.171 45 47 39
-0.18243206 -0.34525305 2.148 45 40 29
-0.17523313 -0.34269375 2.1320002 57 48 35
-0.16835958 -0.34061605 2.1190002 74 58 43
-0.16186352 -0.33918086 2.1100001 80 60 44
-0.15586005 -0.33870971 2.1070001 79 61 45
-0.14980127 -0.33807746 2.1030002 75 59 44
-0.14376387 -0.33744472 2.0990002 40 29 14
-0.13768212 -0.33665085 2.0940001 37 31 14
-0.13175333 -0.33617803 2.0910001 31 31 13
-0.12596105 -0.33602643 2.0900002 32 34 16
-0.1201738 -0.33587435 2.089 32 34 16
-0.11450118 -0.33604351 2.0900002 30 32 15
-0.10866653 -0.3357299 2.0880001 31 35 18
-0.10299034 -0.33589825 2.089 30 33 19
-0.09730833 -0.33606625 2.0900002 33 36 22
-0.091751926 -0.33671623 2.0940001 34 35 23
-0.086091079 -0.33704421 2.0960002 33 34 22
-0.080380626 -0.33721101 2.0970001 32 33 21
-0.0746288 -0.33721662 2.0970001 39 40 28
-0.068909541 -0.33738256 2.098 37 38 26
-0.06324476 -0.33786979 2.1010001 38 39 27
-0.057563279 -0.33835661 2.1040001 37 38 24
-0.05188974 -0.33900383 2.108 41 42 30
-0.046172187 -0.33948985 2.1110001 41 44 32
-0.040418886 -0.33981466 2.1130002 43 48 36
-0.03463807 -0.33997819 2.1140001 41 46 34
-0.028878916 -0.34046298 2.1170001 39 46 34
-0.0230923 -0.34078649 2.1190002 40 47 35
-0.017302772 -0.34127048 2.1220002 38 43 32
-0.011491311 -0.34159315 2.1240001 38 43 32
-0.0056714979 -0.34207624 2.1270001 37 41 33
0.00016456688 -0.34207648 2.1270001 43 48 37
0.0060062739 -0.34239787 2.1290002 41 46 34
0.011864498 -0.34287971 2.1320002 38 43 31
0.017755758 -0.34368274 2.1370001 46 49 35
0.023652287 -0.34416372 2.1400001 40 43 29
0.029551394 -0.34448344 2.1420002 41 44 30
0.035494439 -0.34512436 2.1460001 46 49 37
0.041478589 -0.34592566 2.151 42 44 34
0.047490023 -0.34672657 2.1560001 43 45 35
0.053578254 -0.34784859 2.1630001 41 45 37
0.059704695 -0.3489702 2.1700001 34 38 31
0.06580881 -0.34976977 2.1750002 47 49 41
0.071940109 -0.35056883 2.1800001 40 42 32
0.078170054 -0.35168907 2.187 38 41 29
0.084476613 -0.35296968 2.1950002 37 40 28
0.090826742 -0.35424978 2.2030001 33 36 22
0.097220428 -0.35552949 2.2110002 27 30 18
0.10361092 -0.35664788 2.2180002 28 30 20
0.10994051 -0.3574442 2.223 30 32 22
0.11624493 -0.35807925 2.227 42 44 34
0.12262582 -0.35887471 2.2320001 40 44 36
0.12914903 -0.35999119 2.2390001 44 48 40
0.13571016 -0.36110723 2.2460001 43 49 41
0.14249869 -0.36270511 2.256 55 61 53
0.14947334 -0.36462408 2.2680001 57 65 57
0.15644459 -0.3663817 2.279 51 59 51
0.16319005 -0.36749581 2.286 47 55 48
0.16989917 -0.36844864 2.2920001 11 19 12
-0.21237095 -0.36201522 2.2150002 166 174 173
-0.20500262 -0.35974148 2.2010002 166 173 170
-0.19761984 -0.35730374 2.1860001 32 39 35
-0.19040622 -0.35502893 2.1720002 42 46 39
-0.18301387 -0.35226315 2.1550002 46 42 31
-0.17604275 -0.3501507 2.1420002 39 35 21
-0.16898336 -0.34771076 2.1270001 66 53 38
-0.16231237 -0.34592417 2.1160002 74 60 43
-0.15592304 -0.34462759 2.108 73 59 42
-0.14979066 -0.34382099 2.1030002 59 46 31
-0.14382215 -0.34334096 2.1000001 36 30 13
-0.13773806 -0.3425335 2.095 33 31 13
-0.13180694 -0.34205261 2.092 30 32 14
-0.12601231 -0.34189835 2.0910001 32 34 16
-0.12016519 -0.34158018 2.089 32 34 16
-0.11443817 -0.34158862 2.089 30 32 14
-0.1085026 -0.34094259 2.085 32 34 17
-0.10283505 -0.34111381 2.0860002 33 34 20
-0.097208194 -0.34144804 2.0880001 35 36 22
-0.091657653 -0.34210905 2.092 32 33 21
-0.086002715 -0.34244257 2.0940001 33 34 22
-0.080336474 -0.3427757 2.0960002 34 35 23
-0.074623384 -0.34294492 2.0970001 33 36 24
-0.068937384 -0.34327725 2.0990002 36 38 28
-0.063179962 -0.34328207 2.0990002 36 39 27
-0.057477016 -0.34361356 2.1010001 37 39 29
-0.051787499 -0.34410819 2.1040001 37 39 29
-0.046081342 -0.34460247 2.1070001 37 42 30
-0.040339429 -0.34493271 2.1090002 37 42 30
-0.034602769 -0.34542611 2.112 37 42 30
-0.028835883 -0.34575555 2.1140001 37 42 30
-0.02307971 -0.34641168 2.118 40 43 31
-0.0172852 -0.34674028 2.1200001 41 43 33
-0.011479651 -0.34706849 2.1220002 39 41 31
-0.0056630839 -0.34739617 2.1240001 41 43 35
0.00016432273 -0.3473964 2.1240001 42 44 34
0.0059973714 -0.34772331 2.1260002 41 44 32
0.011846937 -0.34821334 2.1290002 42 45 33
0.017721228 -0.34886649 2.1330001 45 48 36
0.023617402 -0.34951913 2.1370001 43 46 32
0.029535433 -0.35017142 2.141 43 46 34
0.03549185 -0.35098684 2.1460001 43 46 34
0.041475561 -0.35180172 2.151 43 46 34
0.047508582 -0.35277978 2.1570001 38 40 30
0.05357435 -0.35375738 2.1630001 44 46 36
0.059700347 -0.3548981 2.1700001 31 33 25
0.065804027 -0.35571125 2.1750002 36 38 28
0.072033875 -0.35701454 2.1830001 40 41 29
0.078307353 -0.3583174 2.1910002 33 34 20
0.084701397 -0.35994688 2.2010002 31 32 18
0.090985075 -0.36092168 2.207 25 28 14
0.097345307 -0.36205956 2.214 29 32 18
0.10369687 -0.36303344 2.22 27 30 18
0.11003152 -0.36384338 2.2250001 28 33 22
0.11628879 -0.36432576 2.2280002 35 39 31
0.12267196 -0.36513472 2.233 41 45 38
0.12908211 -0.36594322 2.2380002 45 51 44
0.13570048 -0.36724183 2.2460001 49 55 48
0.14248852 -0.36886689 2.256 58 64 57
0.14926504 -0.37032801 2.2650001 57 63 56
0.15581575 -0.37113464 2.2700002 47 53 46
0.16189365 -0.37079632 2.2680001 125 133 126
0.1668482 -0.36800534 2.2510002 135 142 138
-0.21333398 -0.3497549 2.105 164 174 171
-0.20415011 -0.36425489 2.1920002 176 183 180
-0.19697326 -0.36210868 2.1790001 32 39 35
-0.19021752 -0.36062661 2.1700001 42 46 39
-0.1830859 -0.35831317 2.1560001 44 42 32
-0.17611249 -0.35616535 2.1430001 42 38 27
-0.16913028 -0.35385081 2.1290002 47 39 23
-0.16253094 -0.35220054 2.1190002 69 58 43
-0.15605985 -0.35071599 2.1100001 70 58 41
-0.14985119 -0.34972969 2.1040001 44 34 17
-0.14381184 -0.34907532 2.1000001 31 27 10
-0.13772818 -0.34825429 2.095 35 33 15
-0.13186045 -0.34793159 2.0930002 30 32 14
-0.12594296 -0.34744224 2.0900002 31 33 15
-0.12027155 -0.34761745 2.0910001 28 30 12
-0.11448468 -0.34745973 2.0900002 30 32 14
-0.10854677 -0.34680286 2.0860002 31 33 16
-0.10277827 -0.34664428 2.085 30 32 15
-0.097154558 -0.34698412 2.0870001 33 34 20
-0.091607161 -0.3476561 2.0910001 32 33 21
-0.085955359 -0.34799519 2.0930002 33 34 22
-0.080292262 -0.34833378 2.095 30 32 22
-0.074617907 -0.34867206 2.0970001 33 35 25
-0.068899482 -0.34884363 2.098 32 34 24
-0.06311512 -0.34868222 2.0970001 34 37 25
-0.057418082 -0.34901926 2.0990002 39 41 31
-0.051734459 -0.34952208 2.102 37 42 30
-0.046034202 -0.35002455 2.105 34 39 27
-0.040317323 -0.35052663 2.108 36 41 29
-0.034583833 -0.35102826 2.1110001 36 41 29
-0.028820116 -0.35136321 2.1130002 38 41 29
-0.023045318 -0.35169768 2.115 39 41 31
-0.017267616 -0.35219806 2.118 41 43 33
-0.011467983 -0.3525317 2.1200001 40 42 32
-0.0056573334 -0.35286492 2.1220002 44 46 36
0.00016415586 -0.3528651 2.1220002 44 44 34
0.0059969276 -0.35353008 2.1260002 43 46 34
0.011840495 -0.35386193 2.128 45 48 36
0.017711611 -0.35452601 2.1320002 43 46 34
0.023604607 -0.35518965 2.1360002 47 50 38
0.029560842 -0.35635167 2.1430001 39 42 30
0.035538841 -0.35734695 2.1490002 35 38 26
0.041511066 -0.35800925 2.1530001 38 41 29
0.047527101 -0.35883734 2.158 41 44 32
0.05359517 -0.35983127 2.164 41 44 32
0.059750978 -0.36115736 2.1720002 28 30 20
0.065950446 -0.36248291 2.1800001 36 37 25
0.072226554 -0.3639743 2.1890001 36 37 25
0.078551784 -0.36546522 2.1980002 28 29 17
0.084772147 -0.36629051 2.2030001 25 26 12
0.091060869 -0.36728168 2.2090001 31 32 18
0.097382173 -0.36827233 2.2150002 30 33 21
0.10373603 -0.36926255 2.2210002 35 37 27
0.11002351 -0.36991975 2.2250001 37 42 31
0.11622815 -0.37024397 2.227 43 47 40
0.12260813 -0.37106651 2.2320001 49 53 46
0.12907279 -0.37205487 2.2380002 47 53 46
0.13581152 -0.37370765 2.2480001 51 57 50
0.14273088 -0.37569237 2.26 61 67 60
0.14932019 -0.37667924 2.266 54 60 53
0.15573594 -0.37716693 2.2690001 58 64 57
0.16095419 -0.37482843 2.2550001 145 152 148
-0.1971401 -0.36839443 2.181 102 110 103
-0.19037935 -0.36688802 2.1720002 42 48 40
-0.1833276 -0.36470538 2.1590002 36 39 27
-0.17634644 -0.36252221 2.1460001 39 40 26
-0.16943587 -0.36033851 2.1330001 38 35 21
-0.16274938 -0.35849217 2.1220002 43 40 24
-0.15619652 -0.35681424 2.112 53 50 34
-0.14984035 -0.35547376 2.1040001 34 32 14
-0.14366448 -0.3544707 2.098 30 30 12
-0.13765244 -0.35380507 2.0940001 28 30 12
-0.13178785 -0.35347697 2.092 29 31 13
-0.12593378 -0.35314852 2.0900002 29 31 13
-0.12020525 -0.35315755 2.0900002 31 33 15
-0.11447629 -0.35316616 2.0900002 29 31 13
-0.10853879 -0.35249844 2.0860002 29 31 13
-0.10277072 -0.35233727 2.085 28 30 13
-0.097100869 -0.35251364 2.0860002 30 32 15
-0.091556609 -0.35319662 2.0900002 33 34 20
-0.085907929 -0.35354114 2.092 34 35 21
-0.080171347 -0.3535473 2.092 35 36 24
-0.074505642 -0.3538911 2.0940001 33 35 25
-0.068828702 -0.35423446 2.0960002 35 37 27
-0.063110434 -0.35440838 2.0970001 30 33 21
-0.057413809 -0.3547509 2.0990002 34 37 25
-0.051706001 -0.355093 2.1010001 29 34 20
-0.045987044 -0.35543469 2.1030002 32 35 21
-0.040276073 -0.35594496 2.1060002 36 39 25
-0.034532104 -0.35628578 2.108 39 42 28
-0.028777048 -0.35662618 2.1100001 39 42 30
-0.02298912 -0.35662812 2.1100001 44 44 34
-0.017217414 -0.35696769 2.112 45 46 34
-0.011434672 -0.35730678 2.1140001 47 48 36
-0.0056435815 -0.35781449 2.1170001 48 49 37
0.00016398889 -0.35832176 2.1200001 46 47 35
0.0059936582 -0.35916656 2.125 38 41 29
0.011839611 -0.35967299 2.128 36 39 27
0.017710289 -0.36034799 2.1320002 41 44 32
0.023624944 -0.36136052 2.138 37 40 26
0.029600013 -0.36271068 2.1460001 32 35 21
0.035585798 -0.36372238 2.1520002 30 33 19
0.041565806 -0.3643955 2.1560001 30 33 19
0.047611654 -0.36540624 2.1620002 38 41 27
0.053690247 -0.36641654 2.1680002 34 37 23
0.059884071 -0.36793339 2.177 28 31 17
0.066096798 -0.36928076 2.1850002 30 31 17
0.072419159 -0.37096566 2.1950002 33 34 22
0.078617431 -0.37180504 2.2 26 27 15
0.084804349 -0.37247491 2.204 28 29 17
0.091054149 -0.37331343 2.2090001 33 36 24
0.097374983 -0.37432036 2.2150002 35 38 26
0.10363497 -0.37498888 2.2190001 39 44 33
0.10986707 -0.37548795 2.2220001 44 49 38
0.11606307 -0.37581766 2.2240002 49 53 45
0.12254423 -0.37699169 2.2310002 52 56 49
0.12912102 -0.37833422 2.2390001 47 51 44
0.13586202 -0.3800143 2.2490001 53 59 52
0.14265737 -0.38169375 2.2590001 59 63 56
0.14897992 -0.38202107 2.2610002 53 57 50
0.15517561 -0.38200998 2.2610002 71 77 70
0.16051435 -0.37997106 2.2490001 117 123 116
-0.20374873 -0.37553391 2.1880002 168 175 171
-0.1973068 -0.37469003 2.1830001 170 178 171
-0.19019042 -0.37247261 2.1700001 41 47 39
-0.18322952 -0.37042627 2.158 37 40 28
-0.17625158 -0.36820778 2.1450002 38 41 27
-0.16958249 -0.36650366 2.135 43 42 28
-0.16296762 -0.36479905 2.125 36 35 19
-0.15648098 -0.36326572 2.1160002 39 36 20
-0.14997186 -0.36156014 2.1060002 32 31 15
-0.14379093 -0.36054081 2.1000001 29 31 13
-0.13777384 -0.35986441 2.0960002 28 30 12
-0.13190416 -0.35953093 2.0940001 28 32 14
-0.126045 -0.35919708 2.092 28 32 14
-0.12025388 -0.35903448 2.0910001 29 33 15
-0.11446781 -0.35887149 2.0900002 29 31 13
-0.10858278 -0.35836467 2.0870001 30 32 14
-0.10281238 -0.35820082 2.0860002 29 31 14
-0.097140178 -0.35837999 2.0870001 32 34 17
-0.091549776 -0.35890228 2.0900002 31 32 18
-0.085901529 -0.35925233 2.092 33 34 20
-0.080165349 -0.35925853 2.092 34 35 23
-0.074428909 -0.35926434 2.092 31 34 22
-0.068757862 -0.35961324 2.0940001 29 32 20
-0.063045509 -0.35978994 2.095 28 31 19
-0.057409499 -0.36048144 2.0990002 28 31 19
-0.05167751 -0.3606573 2.1000001 33 36 22
-0.045961715 -0.36100444 2.102 34 37 23
-0.040234793 -0.36135122 2.1040001 35 38 24
-0.034480363 -0.36152577 2.105 38 41 27
-0.028747603 -0.36204341 2.108 41 44 32
-0.022987388 -0.36238891 2.1100001 42 43 31
-0.017216114 -0.36273387 2.112 41 42 30
-0.011422992 -0.36273494 2.112 45 46 34
-0.0056351586 -0.36307913 2.1140001 47 48 36
0.00016389917 -0.36393812 2.1190002 43 44 30
0.0059960275 -0.36514014 2.1260002 37 40 26
0.011855408 -0.36599818 2.131 36 39 25
0.017733868 -0.36668402 2.135 35 38 24
0.023645259 -0.36754122 2.1400001 39 40 26
0.02963916 -0.36908492 2.1490002 35 37 20
0.035616186 -0.36994117 2.154 31 33 16
0.041639786 -0.37096876 2.1600001 30 32 15
0.047696151 -0.37199584 2.1660001 33 35 18
0.053859554 -0.37353769 2.1750002 32 34 17
0.060044605 -0.37490728 2.1830001 28 30 13
0.066273332 -0.37627646 2.1910002 32 34 17
0.0725457 -0.37764513 2.1990001 25 26 12
0.078647278 -0.37798291 2.2010002 32 33 21
0.084759548 -0.37832022 2.2030001 36 39 27
0.091006137 -0.37917227 2.2080002 42 44 34
0.097323775 -0.38019553 2.214 44 49 38
0.10362726 -0.38104665 2.2190001 50 52 42
0.10990836 -0.38172555 2.223 47 49 39
0.11615882 -0.38223225 2.2260001 44 46 38
0.12264501 -0.38342535 2.233 36 40 32
0.12934214 -0.38513303 2.243 32 36 28
0.13603324 -0.38666856 2.2520001 52 56 49
0.14252061 -0.38751683 2.2570002 46 50 42
0.14870545 -0.38750601 2.2570002 51 55 48
0.15509564 -0.38800991 2.26 103 107 100
-0.19647919 -0.3790774 2.174 149 157 150
-0.19000141 -0.37804523 2.1680002 40 46 38
-0.18321623 -0.37631494 2.158 38 43 29
-0.17632088 -0.37423548 2.1460001 39 42 28
-0.16941127 -0.37198108 2.1330001 41 42 28
-0.16287902 -0.37042367 2.1240001 37 38 24
-0.15646949 -0.36904025 2.1160002 27 28 14
-0.15010323 -0.36765632 2.108 30 31 17
-0.14391723 -0.36662069 2.102 30 32 15
-0.13782936 -0.36575907 2.0970001 26 30 13
-0.13202035 -0.36559469 2.0960002 27 31 13
-0.12603563 -0.36490658 2.092 27 31 13
-0.12018742 -0.36456695 2.0900002 27 31 14
-0.11434974 -0.36422685 2.0880001 28 30 12
-0.10857466 -0.36406082 2.0870001 32 34 16
