ply
format ascii 1.0
comment PCL generated
element vertex 1126
property float x
property float y
property float z
property uchar red
property uchar green
property uchar blue
element camera 0
property float view_px
property float view_py
property float view_pz
property float x_axisx
property float x_axisy
property float x_axisz
property float y_axisx
property float y_axisy
property float y_axisz
property float z_axisx
property float z_axisy
property float z_axisz
property float focal
property float scalex
property float scaley
property float centerx
property float centery
property int viewportx
property int viewporty
property float k1
property float k2
end_header
0.059405435 -0.25836349 2.1570001 40 49 60
0.065691799 -0.25979722 2.1690001 36 47 62
0.07201077 -0.26111078 2.1800001 34 47 62
0.078568757 -0.26302281 2.1960001 35 49 66
0.08521428 -0.26493442 2.2120001 40 54 71
0.09186478 -0.26660606 2.2260001 55 64 85
0.098283701 -0.26743898 2.233 60 67 88
-0.19826013 -0.26826608 2.1910002 160 167 163
-0.1917285 -0.26754239 2.1850002 62 70 63
-0.18522909 -0.2668184 2.1790001 40 48 40
-0.17876188 -0.26609406 2.1730001 30 36 28
-0.17224738 -0.26524684 2.1660001 26 32 24
-0.16569386 -0.2642768 2.158 29 33 25
-0.15925761 -0.26342884 2.151 26 30 22
-0.15293048 -0.26270303 2.1450002 27 31 23
-0.14670421 -0.26209927 2.1400001 22 27 16
-0.14070225 -0.26186258 2.138 24 28 20
-0.13458461 -0.26138061 2.1340001 23 27 19
-0.12848839 -0.26089835 2.1300001 22 26 18
-0.12224089 -0.26004818 2.1230001 22 26 18
-0.11608617 -0.2593202 2.1170001 20 24 16
-0.11006811 -0.25883681 2.1130002 23 27 19
-0.10407158 -0.25835308 2.1090002 23 27 19
-0.097956792 -0.25750145 2.102 21 25 17
-0.091353782 -0.25517944 2.0830002 23 29 22
-0.084566928 -0.25199944 2.0570002 26 32 25
-0.078191064 -0.24967656 2.0380001 24 30 23
-0.072275408 -0.24857835 2.029 23 29 22
-0.066573277 -0.24809241 2.0250001 24 29 25
-0.06101336 -0.24809618 2.0250001 24 29 25
-0.055453207 -0.24809963 2.0250001 23 28 24
-0.049892828 -0.24810272 2.0250001 27 32 28
-0.044310365 -0.24798302 2.0240002 30 35 32
-0.038752366 -0.24798548 2.0240002 29 34 31
-0.03324341 -0.24835519 2.0270002 35 39 41
-0.027731497 -0.2488471 2.0310001 38 40 42
-0.022262949 -0.25007382 2.0410001 41 43 45
-0.016869975 -0.25326064 2.0670002 25 32 35
-0.01132871 -0.25632462 2.092 36 47 52
-0.0056127203 -0.25767294 2.1030002 35 45 52
0.00016301622 -0.25791812 2.105 37 43 49
0.005955385 -0.25840807 2.1090002 40 45 51
0.0117697 -0.25889763 2.1130002 35 40 46
0.017605942 -0.25938687 2.1170001 35 40 46
0.023453018 -0.25975323 2.1200001 33 39 42
0.029316477 -0.26011926 2.1230001 28 34 37
0.035196297 -0.2604849 2.1260002 29 35 38
0.041169662 -0.26134029 2.1330001 30 36 39
0.047159258 -0.2620728 2.1390002 32 39 42
0.053305589 -0.26341754 2.1500001 35 41 47
0.059401959 -0.26427186 2.1570001 40 48 55
0.065687954 -0.26573834 2.1690001 40 49 62
0.071973525 -0.26695943 2.1790001 37 48 63
0.07856416 -0.26903772 2.1960001 37 49 66
0.085055232 -0.27050307 2.2080002 44 56 73
0.091735639 -0.2723355 2.223 55 71 87
0.098057933 -0.27294245 2.2280002 58 73 86
-0.19770594 -0.27351242 2.1850002 167 175 168
-0.19154207 -0.27327323 2.1830001 43 51 43
-0.18513349 -0.27265817 2.1780002 36 45 34
-0.17875162 -0.27204275 2.1730001 30 37 26
-0.17223747 -0.27117658 2.1660001 30 35 24
-0.16553073 -0.26993439 2.1560001 29 34 23
-0.15910032 -0.26906741 2.1490002 30 32 22
-0.1529216 -0.26857573 2.1450002 27 30 18
-0.14683278 -0.26820889 2.1420002 27 30 18
-0.14069404 -0.26771644 2.138 26 29 17
-0.13451368 -0.26709849 2.1330001 25 27 17
-0.12829989 -0.26635486 2.1270001 22 27 16
-0.12206099 -0.26548573 2.1200001 22 27 16
-0.11602451 -0.26499185 2.1160002 21 25 17
-0.1101137 -0.26474807 2.1140001 21 26 15
-0.10406545 -0.2641283 2.1090002 23 25 17
-0.097997606 -0.26338288 2.1030002 20 24 16
-0.091567643 -0.26150987 2.0880001 22 26 18
-0.084890783 -0.25863454 2.0650001 27 31 23
-0.078378223 -0.25588393 2.043 26 32 25
-0.072342351 -0.25438547 2.0310001 23 29 22
-0.066536434 -0.25351289 2.0240002 24 29 25
-0.06094946 -0.25339144 2.023 22 27 23
-0.055395126 -0.25339493 2.023 24 29 25
-0.049889844 -0.25364864 2.0250001 22 27 23
-0.04430772 -0.25352624 2.0240002 29 32 28
-0.038750049 -0.25352874 2.0240002 30 33 29
-0.033241421 -0.25390673 2.0270002 34 33 29
-0.027770797 -0.25478539 2.0340002 36 35 31
-0.022305245 -0.25616479 2.0450001 35 33 31
-0.016917931 -0.25967339 2.0730002 57 62 68
-0.011338863 -0.26230481 2.0940001 48 54 60
-0.0056043775 -0.2630569 2.1000001 39 44 50
0.0001626967 -0.26318231 2.1010001 35 40 46
0.0059465566 -0.26380846 2.1060002 36 41 47
0.011752284 -0.26430899 2.1100001 31 37 40
0.017588252 -0.26493442 2.115 31 37 40
0.023440551 -0.26543427 2.1190002 30 36 38
0.029342335 -0.26618421 2.125 31 37 39
0.035243854 -0.26668334 2.1290002 27 33 36
0.041225094 -0.26755786 2.1360002 29 35 38
0.047222581 -0.26830676 2.1420002 28 34 37
0.053351983 -0.26955631 2.1520002 29 35 41
0.059398405 -0.27017918 2.1570001 34 42 49
0.065653756 -0.27155328 2.1680002 34 43 54
0.071936212 -0.2728017 2.1780002 36 47 60
0.078452162 -0.27467594 2.1930001 34 46 63
0.084857576 -0.27592355 2.2030001 39 55 71
0.091400079 -0.27742124 2.2150002 49 66 85
0.097788058 -0.27829227 2.2220001 65 69 79
-0.20386824 -0.27973658 2.187 161 168 165
-0.19787544 -0.27974826 2.187 161 168 164
-0.19170642 -0.27950382 2.1850002 31 39 31
-0.18503769 -0.2784915 2.177 37 43 35
-0.17849441 -0.27760673 2.1700001 32 37 25
-0.17190932 -0.2765936 2.1620002 33 36 24
-0.16529068 -0.27545214 2.1530001 35 36 24
-0.15894289 -0.27469414 2.1470001 34 35 21
-0.15284126 -0.27431956 2.1440001 33 35 18
-0.14675553 -0.27394465 2.141 33 35 18
-0.14061989 -0.27344143 2.1370001 28 32 15
-0.13437957 -0.27268192 2.131 27 30 16
-0.12823194 -0.27204999 2.1260002 25 28 14
-0.12205369 -0.27128974 2.1200001 29 32 18
-0.11601757 -0.27078506 2.1160002 27 28 16
-0.1101071 -0.27053595 2.1140001 25 26 14
-0.10405919 -0.26990259 2.1090002 26 27 15
-0.098131493 -0.26952478 2.1060002 23 24 12
-0.091912933 -0.26825073 2.0960002 23 25 15
-0.085461147 -0.26608038 2.079 27 29 19
-0.078718752 -0.26262978 2.052 26 30 22
-0.072444819 -0.26033062 2.0340002 25 31 24
-0.066631019 -0.25943893 2.0270002 28 32 25
-0.060975891 -0.25905886 2.0240002 28 29 23
-0.055446524 -0.25919044 2.0250001 28 29 23
-0.049960725 -0.25957766 2.0280001 29 30 24
-0.044392578 -0.25958052 2.0280001 29 31 23
-0.03880512 -0.25945511 2.0270002 27 29 21
-0.033272188 -0.25971332 2.029 32 34 26
-0.027851017 -0.26112321 2.0400002 55 56 50
-0.022380229 -0.26266077 2.052 145 141 141
-0.016965859 -0.26611802 2.079 102 69 80
-0.01133817 -0.26803899 2.0940001 67 60 58
-0.0055986978 -0.2685515 2.098 59 63 56
0.00016253191 -0.26867968 2.0990002 34 39 35
0.0059405467 -0.26931947 2.1040001 33 38 35
0.011740428 -0.269831 2.108 31 38 35
0.017578863 -0.27059808 2.1140001 30 37 34
0.023428056 -0.27110881 2.118 30 37 34
0.029340545 -0.2720032 2.125 27 34 31
0.035291363 -0.27289727 2.1320002 28 35 32
0.041261185 -0.27366289 2.138 27 34 31
0.047241747 -0.27430016 2.1430001 26 33 30
0.053373531 -0.27557707 2.1530001 29 35 37
0.059449878 -0.27634162 2.1590002 32 38 41
0.065740608 -0.27787364 2.171 32 41 46
0.071997896 -0.27902138 2.1800001 34 42 51
0.078411639 -0.28055269 2.1920002 37 46 59
0.084775403 -0.2816996 2.2010002 39 48 59
0.091188252 -0.28284609 2.21 51 61 78
0.097474113 -0.28348026 2.2150002 75 71 79
-0.20311061 -0.28467575 2.1790001 161 168 165
-0.19768286 -0.2854715 2.1850002 129 136 132
-0.19125643 -0.2848298 2.1800001 44 52 45
-0.18468677 -0.2839264 2.1730001 36 42 34
-0.17815478 -0.28302261 2.1660001 36 39 27
-0.17166054 -0.28211841 2.1590002 33 36 24
-0.16505051 -0.28095251 2.1500001 31 32 20
-0.15863726 -0.28004751 2.1430001 32 33 19
-0.15254694 -0.27966487 2.1400001 32 34 17
-0.14654107 -0.27941257 2.138 33 35 18
-0.1404798 -0.27902925 2.135 29 31 14
-0.13418224 -0.27812272 2.128 29 31 14
-0.1279829 -0.27734655 2.1220002 30 31 17
-0.12193112 -0.27683136 2.118 28 29 15
-0.11595567 -0.27644655 2.115 30 31 17
-0.1100483 -0.2761921 2.1130002 26 27 13
-0.10410215 -0.27580655 2.1100001 25 26 12
-0.098172069 -0.27542064 2.1070001 24 25 11
-0.092126541 -0.2746422 2.1010001 22 25 13
-0.08586695 -0.27307907 2.089 23 26 14
-0.079212576 -0.26994681 2.0650001 21 26 15
-0.072654046 -0.2666834 2.0400002 26 30 22
-0.066791259 -0.2656419 2.0320001 31 31 23
-0.061122753 -0.26525369 2.029 36 33 26
-0.055607378 -0.26551878 2.0310001 38 35 28
-0.050056167 -0.26565284 2.0320001 40 37 30
-0.044564936 -0.2661787 2.036 27 27 19
-0.038974997 -0.26618129 2.036 48 50 42
-0.033434097 -0.26657578 2.039 46 50 42
-0.027903896 -0.2672314 2.0440001 52 56 49
-0.022422465 -0.26880184 2.056 51 54 50
-0.016989289 -0.27220234 2.082 51 44 45
-0.011326636 -0.27351061 2.092 66 65 59
-0.0055876765 -0.27377263 2.0940001 86 90 83
0.00016221211 -0.27390355 2.095 53 57 50
0.0059345313 -0.27481854 2.102 48 52 45
0.011734131 -0.27547172 2.1070001 35 41 34
0.017577773 -0.27638599 2.1140001 27 33 26
0.023437666 -0.2770384 2.1190002 27 35 28
0.02936634 -0.27808267 2.1270001 28 36 29
0.03533883 -0.27912652 2.135 27 35 28
0.04129722 -0.27977785 2.1400001 28 35 31
0.047282908 -0.28042877 2.1450002 27 34 30
0.053395014 -0.28160223 2.154 28 35 34
0.059501261 -0.28251386 2.161 27 33 35
0.065766834 -0.28394803 2.1720002 30 36 42
0.072026484 -0.28512028 2.181 31 37 43
0.078406811 -0.28655365 2.1920002 34 42 51
0.084808707 -0.28785583 2.2020001 37 45 52
0.091141395 -0.28876543 2.2090001 52 60 76
0.097380139 -0.2892825 2.2130001 59 68 71
-0.20446259 -0.28422284 2.131 164 171 168
-0.19749008 -0.29118279 2.1830001 77 84 80
-0.19106951 -0.29052758 2.1780002 45 51 44
-0.18450567 -0.2896052 2.171 38 42 34
-0.17797951 -0.2886824 2.164 36 38 28
-0.17157064 -0.28789264 2.158 31 33 23
-0.16504046 -0.28683567 2.1500001 29 32 20
-0.15855359 -0.28577828 2.1420002 29 32 18
-0.15246636 -0.28538758 2.1390002 32 33 19
-0.14646356 -0.28512993 2.1370001 28 30 13
-0.14047118 -0.28487194 2.135 31 35 18
-0.13417399 -0.28394645 2.128 27 30 16
-0.12803532 -0.28328738 2.1230001 27 30 16
-0.1219236 -0.28262794 2.118 29 30 16
-0.11589367 -0.28210163 2.1140001 27 28 14
-0.10993732 -0.28170833 2.1110001 27 28 14
-0.10399701 -0.28131467 2.108 26 27 13
-0.098165959 -0.28118756 2.1070001 28 27 13
-0.092296176 -0.28092661 2.105 25 26 12
-0.0862315 -0.27999803 2.098 24 25 11
-0.07974463 -0.27746749 2.079 25 26 14
-0.07297001 -0.27346843 2.049 34 32 21
-0.066984273 -0.27200472 2.0380001 56 52 41
-0.061329771 -0.27174184 2.036 51 47 36
-0.055822905 -0.27214596 2.039 51 47 36
-0.050250087 -0.27228284 2.0400002 55 53 43
-0.044802893 -0.27322012 2.0470002 42 44 36
-0.039144821 -0.27295581 2.0450001 51 55 48
-0.033481181 -0.27255771 2.0420001 53 59 52
-0.02782023 -0.27202576 2.0380001 49 55 48
-0.022366526 -0.27376258 2.0510001 50 56 49
-0.016898461 -0.27643338 2.0710001 43 43 35
-0.011266369 -0.27776903 2.0810001 40 37 30
-0.0055606412 -0.27817002 2.0840001 117 114 107
0.00016173729 -0.27883756 2.089 61 59 49
0.0059200409 -0.2799052 2.0970001 62 60 50
0.011722253 -0.28097248 2.105 55 57 49
0.017560035 -0.28190592 2.112 55 59 51
0.023414068 -0.282572 2.1170001 48 54 46
0.029350683 -0.28377163 2.1260002 33 39 31
0.035336606 -0.28497085 2.135 27 33 25
0.041333217 -0.28590277 2.1420002 24 30 23
0.047346052 -0.28670073 2.148 24 30 23
0.053441238 -0.28776535 2.1560001 26 32 25
0.059635196 -0.28909647 2.1660001 30 35 31
0.065974645 -0.2908276 2.1790001 31 36 32
0.07225313 -0.29202446 2.1880002 31 38 37
0.078616515 -0.29335436 2.1980002 34 41 40
0.084918939 -0.29428342 2.2050002 38 45 44
0.091135703 -0.2948117 2.2090001 51 59 58
0.097110055 -0.29453886 2.207 60 70 61
-0.20234056 -0.29550874 2.171 165 172 169
-0.19702578 -0.29647383 2.1780002 41 48 44
-0.19061926 -0.29580507 2.1730001 43 49 42
-0.18406948 -0.29486367 2.1660001 41 45 37
-0.17780416 -0.29433033 2.1620002 35 37 27
-0.17156008 -0.29379657 2.158 34 36 26
-0.16510703 -0.29285398 2.151 29 32 20
-0.15846975 -0.29150257 2.141 32 35 21
-0.15231434 -0.29096764 2.1370001 32 33 19
-0.14631739 -0.2907047 2.135 31 32 18
-0.14019926 -0.290169 2.131 30 33 19
-0.13385038 -0.28908831 2.1230001 28 31 17
-0.12760518 -0.28814334 2.1160002 27 30 16
-0.12162815 -0.2877427 2.1130002 26 29 15
-0.11577673 -0.28761399 2.112 30 31 17
-0.10982625 -0.28721267 2.1090002 28 29 15
-0.10384245 -0.28667465 2.105 28 29 15
-0.097973414 -0.28640872 2.1030002 27 28 14
-0.092158802 -0.28627858 2.102 27 28 14
-0.086308233 -0.2860119 2.1000001 26 27 13
-0.080276541 -0.28506383 2.0930002 39 40 28
-0.073641956 -0.28166375 2.0680001 28 26 15
-0.067341529 -0.27908045 2.049 49 46 32
-0.06156683 -0.27840355 2.0440001 52 48 37
-0.056038354 -0.27881598 2.0470002 47 43 32
-0.050493184 -0.27922803 2.0500002 51 49 39
-0.044909455 -0.27950349 2.052 48 49 43
-0.039161455 -0.27868894 2.046 57 61 54
-0.03346264 -0.27801022 2.0410001 54 60 53
-0.027873049 -0.27814841 2.0420001 53 59 52
-0.022397805 -0.27978462 2.0540001 55 59 51
-0.016848423 -0.28128424 2.0650001 57 53 43
-0.011206098 -0.28196624 2.0700002 48 44 34
-0.005528267 -0.2822392 2.072 116 112 102
0.00016095275 -0.28319287 2.079 63 59 49
0.0058970782 -0.28455484 2.089 62 58 48
0.011693659 -0.28605267 2.1000001 61 61 51
0.017525652 -0.28714141 2.108 51 56 45
0.023390448 -0.28809363 2.115 55 60 49
0.029293587 -0.28904542 2.1220002 55 60 49
0.035284698 -0.29040548 2.1320002 52 57 46
0.041311271 -0.2916289 2.141 51 55 47
0.047387112 -0.29285195 2.1500001 43 49 41
0.053512175 -0.29407459 2.1590002 38 44 37
0.059713975 -0.29543301 2.1690001 30 36 29
0.066091545 -0.29733586 2.1830001 25 31 24
0.072347589 -0.29842106 2.1910002 22 27 23
0.078647271 -0.2995058 2.1990001 21 28 24
0.084875025 -0.30018157 2.204 19 26 23
0.091047414 -0.30058455 2.207 48 55 52
0.097103909 -0.30057853 2.207 56 65 60
-0.20769954 -0.30060059 2.1650002 164 173 168
-0.20363288 -0.30339026 2.1850002 162 170 163
-0.19701363 -0.30243072 2.1780002 49 57 50
-0.19051974 -0.30160961 2.1720002 41 47 39
-0.18380314 -0.30037153 2.1630001 39 44 33
-0.17746411 -0.29968846 2.158 35 38 26
-0.17139038 -0.2994217 2.1560001 33 36 24
-0.16494322 -0.29846016 2.1490002 28 31 17
-0.1584598 -0.29735926 2.141 32 35 21
-0.15209094 -0.29639685 2.1340001 32 33 19
-0.14603403 -0.29598966 2.131 29 32 18
-0.13986146 -0.2953043 2.1260002 30 33 19
-0.13365275 -0.29447958 2.1200001 29 32 18
-0.12753674 -0.29379338 2.115 29 33 16
-0.12162039 -0.29352358 2.1130002 25 28 14
-0.11571454 -0.29325339 2.1110001 27 30 16
-0.10976715 -0.29284385 2.108 29 33 16
-0.10373715 -0.29215616 2.1030002 25 28 14
-0.09782736 -0.29174587 2.1000001 25 28 14
-0.091977507 -0.29147416 2.098 26 29 15
-0.086179383 -0.29134104 2.0970001 23 26 12
-0.08034806 -0.29106855 2.095 29 32 18
-0.074242532 -0.28968421 2.085 45 48 34
-0.067895845 -0.287049 2.066 49 50 38
-0.061773676 -0.28496912 2.0510001 46 47 35
-0.056144215 -0.284973 2.0510001 43 45 35
-0.050489906 -0.28483754 2.0500002 41 43 35
-0.044928432 -0.28525752 2.0530002 50 54 47
-0.039120641 -0.28400972 2.0440001 51 57 49
-0.033542439 -0.28428999 2.046 54 62 54
-0.027953129 -0.28456989 2.0480001 51 57 49
-0.022450864 -0.28609997 2.059 52 61 50
-0.016814694 -0.28637919 2.0610001 56 55 39
-0.011156648 -0.28638011 2.0610001 72 69 55
-0.0055012284 -0.28651959 2.062 112 100 90
0.00016032296 -0.28777036 2.0710001 58 53 42
0.0058741122 -0.28915966 2.0810001 55 53 43
0.011653922 -0.29082656 2.0930002 51 53 45
0.017449694 -0.2916593 2.0990002 54 56 48
0.023300458 -0.29276955 2.1070001 53 57 49
0.029208859 -0.29401842 2.1160002 57 61 53
0.035216197 -0.29568365 2.128 54 58 50
0.041270003 -0.29720959 2.1390002 58 62 54
0.047362 -0.29859623 2.1490002 51 57 49
0.053483918 -0.29984337 2.158 49 53 46
0.059737634 -0.30150703 2.1700001 49 53 46
0.066087268 -0.3033092 2.1830001 51 55 48
0.072408952 -0.30469409 2.1930001 49 53 46
0.07867796 -0.30566174 2.2 43 47 40
0.084946573 -0.30649 2.2060001 24 30 23
0.091165304 -0.30704004 2.21 43 50 46
0.097097665 -0.30661714 2.207 45 52 51
-0.20436567 -0.31049782 2.1930001 168 176 169
-0.19672996 -0.30796191 2.1750002 91 99 92
-0.19033234 -0.30726612 2.1700001 44 51 40
-0.1836216 -0.30600354 2.161 38 43 32
-0.17720622 -0.30516541 2.1550002 34 37 25
-0.17098206 -0.30461004 2.151 28 31 19
-0.16462572 -0.30377111 2.1450002 34 35 21
-0.15844968 -0.30321497 2.141 32 33 19
-0.15193869 -0.30195031 2.1320002 33 34 20
-0.14561352 -0.3009685 2.125 31 34 20
-0.13945778 -0.30026954 2.1200001 30 33 19
-0.13339199 -0.29971182 2.1160002 31 34 20
-0.12734763 -0.29915372 2.112 28 32 15
-0.12138231 -0.29873687 2.1090002 29 33 16
-0.11543299 -0.29831964 2.1060002 29 32 18
-0.10960381 -0.29818535 2.105 26 29 15
-0.10358243 -0.29748404 2.1000001 27 30 16
-0.097681254 -0.29706568 2.0970001 26 29 15
-0.091839999 -0.29678854 2.095 25 29 12
-0.086050458 -0.29665273 2.0940001 26 29 15
-0.080266103 -0.29651657 2.0930002 28 31 17
-0.074486911 -0.29637998 2.092 42 45 31
-0.068614349 -0.29581803 2.0880001 42 45 33
-0.062432192 -0.29369721 2.0730002 40 43 31
-0.056250006 -0.29115093 2.0550001 33 38 27
-0.050461948 -0.29030433 2.049 39 43 35
-0.044947349 -0.29101595 2.0540001 59 63 56
-0.03946254 -0.29215223 2.062 53 59 51
-0.033687763 -0.29116285 2.0550001 53 59 51
-0.028060468 -0.29130659 2.056 55 60 49
-0.022416674 -0.29130822 2.056 53 60 48
-0.016772794 -0.29130957 2.056 52 49 33
-0.011134261 -0.29145223 2.0570002 79 75 59
-0.0054955301 -0.29187784 2.0600002 105 98 85
0.00016015755 -0.29315317 2.069 58 54 40
0.0058624344 -0.29428646 2.0770001 58 56 46
0.011614177 -0.29556108 2.0860002 53 55 47
0.01739035 -0.29641023 2.092 54 56 48
0.023243628 -0.29782578 2.102 57 61 53
0.029151717 -0.29924089 2.112 56 60 52
0.035147689 -0.30093896 2.1240001 59 63 55
0.041190106 -0.30249494 2.135 60 64 56
0.047292762 -0.30405056 2.1460001 61 65 57
0.05340606 -0.30532235 2.1550002 59 63 56
0.059623599 -0.30687711 2.1660001 51 55 48
0.065931574 -0.3085731 2.1780002 55 59 52
0.072338164 -0.31041029 2.1910002 58 62 55
0.078637049 -0.31153873 2.1990001 41 45 38
0.084979512 -0.31266665 2.207 33 39 32
0.091241837 -0.31336918 2.2120001 46 51 47
0.097399272 -0.31364635 2.214 48 54 56
-0.20267545 -0.31389579 2.1750002 173 182 175
-0.19653654 -0.31361985 2.1730001 132 140 133
-0.19032021 -0.31319928 2.1700001 38 47 36
-0.18369484 -0.31205663 2.1620002 34 41 29
-0.17711262 -0.31091353 2.154 37 40 26
-0.17073262 -0.31005868 2.148 31 34 22
-0.16446161 -0.30934784 2.1430001 33 34 20
-0.15836544 -0.30892527 2.1400001 35 36 22
-0.15192884 -0.3077805 2.1320002 33 34 20
-0.14553554 -0.30663529 2.1240001 32 35 21
-0.13931713 -0.30577841 2.118 29 32 18
-0.13332023 -0.30535427 2.115 32 36 19
-0.12733929 -0.30492967 2.112 32 34 17
-0.12131679 -0.30436036 2.108 30 32 15
-0.11537058 -0.30393502 2.105 28 31 17
-0.10949247 -0.30365375 2.1030002 28 29 15
-0.10347694 -0.30293882 2.098 27 30 16
-0.097581632 -0.30251232 2.095 26 29 15
-0.091702409 -0.30208543 2.092 28 32 15
-0.085839309 -0.30165812 2.089 28 30 13
-0.079992346 -0.30123052 2.0860002 28 31 17
-0.074232742 -0.30109125 2.085 37 40 26
-0.06854406 -0.30124044 2.0860002 42 45 33
-0.062458146 -0.29951188 2.0740001 54 57 45
-0.056437843 -0.2977829 2.062 45 50 39
-0.050483208 -0.29605353 2.0500002 40 44 36
-0.045009989 -0.29706767 2.0570002 52 56 48
-0.039440766 -0.29764819 2.0610001 52 58 50
-0.033931389 -0.29895043 2.0700002 51 58 47
-0.028113181 -0.29750833 2.0600002 58 60 50
-0.022426074 -0.29707673 2.0570002 56 61 49
-0.016763512 -0.29678923 2.0550001 51 49 31
-0.011133514 -0.297079 2.0570002 101 83 68
-0.0054978286 -0.29765725 2.0610001 86 79 66
0.00016006941 -0.29866838 2.0680001 54 50 36
0.0058535747 -0.29953477 2.0740001 51 51 43
0.011585562 -0.30054513 2.0810001 50 54 46
0.017347625 -0.30141068 2.0870001 49 53 45
0.023208903 -0.30314243 2.0990002 54 59 48
0.029149763 -0.3050181 2.112 58 62 54
0.035161883 -0.30689341 2.125 57 61 53
0.041148774 -0.30804619 2.1330001 57 61 53
0.047223493 -0.3094874 2.1430001 63 67 59
0.053303365 -0.31063938 2.151 60 64 57
0.059509523 -0.31222415 2.1620002 62 66 59
0.065806091 -0.31395289 2.174 60 64 57
0.072201289 -0.31582561 2.187 63 67 60
0.078631811 -0.31755352 2.1990001 46 50 43
0.085050881 -0.31899205 2.2090001 42 48 41
0.09140078 -0.31999701 2.2160001 47 52 48
0.09743683 -0.31984633 2.2150002 44 48 50
0.10323335 -0.31897327 2.2090001 131 134 138
-0.20163746 -0.31822363 2.164 164 173 166
-0.19580039 -0.31838357 2.1650002 84 92 84
-0.19004482 -0.31869021 2.1670001 40 49 38
-0.18376788 -0.3181141 2.1630001 34 41 29
-0.17734778 -0.31724349 2.1570001 32 35 21
-0.17072147 -0.31593114 2.148 34 38 21
-0.16445087 -0.31520677 2.1430001 34 35 21
-0.15820706 -0.31448194 2.138 36 37 23
-0.1519901 -0.31375673 2.1330001 36 38 21
-0.14559446 -0.31258979 2.125 33 35 18
-0.13937372 -0.31171665 2.1190002 31 33 16
-0.13324837 -0.31099018 2.1140001 34 36 19
-0.12721027 -0.31041041 2.1100001 32 34 17
-0.12113608 -0.30968314 2.105 30 32 15
-0.11519848 -0.30924973 2.102 30 31 17
-0.10932897 -0.30896303 2.1000001 31 32 18
-0.10342071 -0.30852881 2.0970001 31 32 18
-0.09752851 -0.30809417 2.0940001 28 29 15
-0.091696255 -0.30780628 2.092 30 31 17
-0.085751362 -0.30707663 2.0870001 30 29 13
-0.079910263 -0.30664083 2.0840001 33 30 14
-0.074014127 -0.30591032 2.079 86 83 69
-0.068145156 -0.30517945 2.0740001 59 55 44
-0.062092565 -0.30341807 2.062 61 57 46
-0.056269817 -0.30253923 2.056 40 38 27
-0.050578289 -0.30224857 2.0540001 40 38 27
-0.044941302 -0.30225185 2.0540001 47 45 34
-0.039285012 -0.30210757 2.0530002 59 57 46
-0.033699613 -0.30255148 2.056 68 64 53
-0.028056681 -0.30255359 2.056 72 75 63
-0.022424551 -0.30270249 2.0570002 49 45 31
-0.016762374 -0.30240953 2.0550001 74 63 48
-0.011127344 -0.30255762 2.056 106 88 73
-0.0054974551 -0.303294 2.0610001 61 54 41
0.00015998115 -0.30417714 2.0670002 48 43 32
0.0058531761 -0.30520704 2.0740001 45 47 39
0.011568074 -0.30579507 2.0780001 50 54 46
0.017329821 -0.30682418 2.085 50 54 46
0.023185212 -0.30858871 2.0970001 50 55 44
0.029106382 -0.3103528 2.1090002 52 56 48
0.035076767 -0.31196931 2.1200001 56 60 52
0.041030239 -0.3129968 2.1270001 58 62 55
0.047088087 -0.31446534 2.1370001 62 66 59
0.053175863 -0.3157863 2.1460001 61 65 58
0.059422929 -0.31769541 2.1590002 56 60 53
0.065710843 -0.31945688 2.171 57 61 54
0.072097383 -0.32136515 2.184 58 62 55
0.078483492 -0.32297859 2.1950002 49 53 46
0.08496815 -0.32473874 2.207 50 56 49
0.091312148 -0.32576275 2.214 53 57 50
0.097518243 -0.32619774 2.217 106 108 108
0.10313296 -0.32471967 2.207 114 116 116
-0.19799063 -0.31829631 2.125 164 173 168
-0.19524501 -0.32340208 2.1590002 122 130 123
-0.18941852 -0.3235645 2.1600001 41 50 39
-0.18333104 -0.32327718 2.158 37 44 32
-0.17708945 -0.32268992 2.154 32 36 19
-0.17078969 -0.3219524 2.1490002 30 34 17
-0.16443998 -0.32106465 2.1430001 34 35 21
-0.15812257 -0.32017645 2.1370001 33 34 20
-0.15197998 -0.31958753 2.1330001 34 35 21
-0.14572178 -0.31869856 2.1270001 33 34 20
-0.13949591 -0.31780913 2.1210001 34 36 19
-0.13330245 -0.31691927 2.115 32 34 17
-0.12720172 -0.31617886 2.1100001 30 32 15
-0.12112791 -0.315438 2.105 33 35 18
-0.11524551 -0.31514636 2.1030002 33 34 20
-0.10932157 -0.31470442 2.1000001 32 33 19
-0.10331506 -0.31396234 2.095 32 33 19
-0.097289033 -0.31307 2.089 28 29 15
-0.091427051 -0.31262687 2.0860002 31 30 16
-0.085540079 -0.31203341 2.082 33 32 18
-0.079713099 -0.31158948 2.079 32 29 13
-0.07386668 -0.31099528 2.075 70 66 52
-0.067976214 -0.31010088 2.069 79 75 61
-0.061967868 -0.30845666 2.0580001 76 69 56
-0.056265965 -0.30816099 2.056 55 51 37
-0.050624058 -0.30816466 2.056 48 44 30
-0.044960089 -0.30801809 2.0550001 43 39 25
-0.039205767 -0.30712166 2.049 47 43 29
-0.033598959 -0.3072741 2.0500002 49 42 29
-0.027986528 -0.3074261 2.0510001 54 45 32
-0.022390306 -0.30787754 2.0540001 59 46 31
-0.016761219 -0.30802879 2.0550001 86 74 57
-0.011121167 -0.30802974 2.0550001 109 96 81
-0.0054890746 -0.30847999 2.0580001 44 35 22
0.00015966056 -0.30922967 2.0630002 45 40 29
0.0058443071 -0.31042856 2.0710001 44 46 38
0.011550578 -0.31102756 2.075 47 51 43
0.017312007 -0.31222573 2.0830002 47 51 43
0.02315045 -0.31387308 2.0940001 50 55 44
0.029062981 -0.31567001 2.1060002 52 56 48
0.034958545 -0.316717 2.1130002 52 56 48
0.040873114 -0.31761372 2.1190002 54 58 50
0.046930619 -0.31925943 2.1300001 57 61 54
0.053073108 -0.32105467 2.1420002 58 62 55
0.05933629 -0.32314914 2.1560001 54 58 51
0.065585285 -0.32479355 2.1670001 56 60 53
0.071927413 -0.32658738 2.1790001 58 62 55
0.078370869 -0.32853064 2.1920002 57 61 54
0.084769882 -0.3300238 2.2020001 47 51 44
0.09118221 -0.3313666 2.2110002 44 48 41
0.097379662 -0.3318097 2.214 158 161 157
0.10359322 -0.33225241 2.217 143 146 143
-0.19441828 -0.3279292 2.1500001 158 166 159
-0.18896754 -0.32870463 2.1550002 43 51 43
-0.18323393 -0.32902211 2.1570001 41 48 37
-0.17707762 -0.32857653 2.154 38 41 27
-0.17077826 -0.32782552 2.1490002 32 36 19
-0.16435221 -0.32676896 2.1420002 33 34 20
-0.15803793 -0.32586452 2.1360002 32 33 19
-0.15182723 -0.32511222 2.131 33 34 20
-0.14571193 -0.32451209 2.1270001 31 33 16
-0.13955222 -0.32375896 2.1220002 30 32 15
-0.13341945 -0.32300541 2.1170001 31 33 16
-0.12725332 -0.32209882 2.1110001 32 34 17
-0.1211772 -0.32134447 2.1060002 31 33 16
-0.11518282 -0.32074222 2.102 33 35 18
-0.10920997 -0.32013962 2.098 32 33 19
-0.10320935 -0.31938395 2.0930002 31 33 16
-0.097189203 -0.31847531 2.0870001 31 33 16
-0.091289274 -0.31787145 2.0830002 28 29 15
-0.085410938 -0.31726712 2.079 31 30 16
-0.079630911 -0.31696767 2.0770001 32 28 14
-0.073790379 -0.31636259 2.0730002 47 40 27
-0.067905799 -0.31545183 2.0670002 88 77 64
-0.061963573 -0.3140828 2.0580001 82 69 56
-0.056262054 -0.31378174 2.056 65 51 34
-0.050620541 -0.31378546 2.056 60 46 29
-0.044935081 -0.31348357 2.0540001 62 48 31
-0.03920304 -0.3127234 2.049 68 54 37
-0.033547454 -0.3124207 2.0470002 68 52 36
-0.027957289 -0.31272811 2.049 67 51 35
-0.022366945 -0.31318775 2.052 74 56 40
-0.016751893 -0.31349435 2.0540001 89 75 58
-0.01111498 -0.31349537 2.0540001 76 64 47
-0.005486025 -0.31395382 2.0570002 42 35 22
0.00015964941 -0.31486979 2.0630002 43 40 26
0.0058410778 -0.31593797 2.0700002 39 41 31
0.011544205 -0.31654784 2.0740001 45 47 39
0.01728587 -0.31746262 2.0800002 45 49 41
0.023093559 -0.31883478 2.089 48 53 42
0.028964361 -0.32035923 2.0990002 47 52 41
0.034840308 -0.32142541 2.1060002 53 57 49
0.040754538 -0.32249105 2.1130002 55 59 51
0.046795167 -0.32416686 2.1240001 58 62 54
0.052970309 -0.3263 2.138 57 61 54
0.059194569 -0.32828015 2.151 49 53 46
0.065399155 -0.32980198 2.161 56 60 53
0.071691379 -0.33147597 2.1720002 61 65 58
0.07807944 -0.33330208 2.184 63 67 60
0.084494568 -0.33497515 2.1950002 51 55 48
0.091010958 -0.33680028 2.207 62 67 63
0.09759286 -0.33862501 2.2190001 153 161 154
0.10386644 -0.33922842 2.223 151 159 152
-0.19910717 -0.34187675 2.2020001 164 172 165
-0.18948093 -0.33552414 2.161 29 37 29
-0.18339147 -0.33522621 2.1590002 37 46 35
-0.17690128 -0.33415154 2.1520002 38 43 29
-0.17060775 -0.33338696 2.1470001 36 39 25
-0.16426432 -0.33246669 2.141 35 37 20
-0.15802717 -0.33170131 2.1360002 33 35 18
-0.15174562 -0.33078015 2.1300001 30 31 17
-0.14570194 -0.33032453 2.1270001 30 32 15
-0.13954264 -0.32955781 2.1220002 28 30 13
-0.13341029 -0.32879072 2.1170001 28 30 13
-0.12730482 -0.3280232 2.112 29 31 14
-0.12122636 -0.32725528 2.1070001 31 33 16
-0.11517483 -0.32648686 2.102 30 32 15
-0.10915034 -0.3257181 2.0970001 32 34 17
-0.10315286 -0.32494888 2.092 30 32 15
-0.09718243 -0.3241792 2.0870001 31 33 16
-0.091195256 -0.32325381 2.0810001 29 30 16
-0.085322805 -0.32263866 2.0770001 29 30 16
-0.079472005 -0.32202315 2.0730002 32 29 15
-0.073714025 -0.32171783 2.0710001 32 25 12
-0.067966737 -0.32141212 2.069 90 77 64
-0.062139865 -0.32064003 2.0640001 81 66 51
-0.056367557 -0.32002282 2.0600002 64 48 32
-0.0506416 -0.31956053 2.0570002 64 48 32
-0.044953793 -0.31925318 2.0550001 69 54 35
-0.039257672 -0.31879011 2.052 72 55 36
-0.033594247 -0.31848198 2.0500002 73 53 37
-0.027982604 -0.31863952 2.0510001 77 57 41
-0.022365363 -0.31879666 2.052 87 69 53
-0.016742555 -0.31895345 2.0530002 90 76 59
-0.011119605 -0.31926516 2.0550001 49 37 20
-0.0054856366 -0.31957644 2.0570002 38 35 21
0.00015956075 -0.32035342 2.062 39 37 26
0.0058322004 -0.32113004 2.0670002 38 40 30
0.01154339 -0.3222169 2.0740001 43 45 37
0.017284647 -0.32314807 2.0800002 44 48 40
0.02305877 -0.3240788 2.0860002 42 47 36
0.028879529 -0.32516447 2.0930002 48 53 42
0.034722056 -0.32609439 2.0990002 49 54 43
0.040674526 -0.32764524 2.1090002 58 63 52
0.046747811 -0.32966176 2.1220002 64 68 60
0.052892264 -0.33167782 2.135 62 66 59
0.059025306 -0.33322743 2.1450002 56 60 53
0.065212995 -0.33477649 2.1550002 59 63 56
0.071521319 -0.3366358 2.1670001 61 65 58
0.077895232 -0.33849469 2.1790001 67 71 64
0.0842577 -0.34004238 2.1890001 59 63 56
0.090839662 -0.34221101 2.2030001 64 70 63
0.097454123 -0.34422377 2.2160001 128 136 129
0.10413953 -0.34623605 2.2290001 136 144 137
-0.19538666 -0.34141433 2.161 173 182 175
-0.18973111 -0.34190145 2.164 39 47 39
-0.18363377 -0.34159824 2.1620002 39 48 37
-0.17705359 -0.34034657 2.154 40 45 33
-0.17051663 -0.33909446 2.1460001 36 39 25
-0.1640996 -0.33799991 2.1390002 36 40 23
-0.15786833 -0.33722097 2.1340001 35 37 20
-0.15173513 -0.33659962 2.1300001 31 33 16
-0.14555483 -0.33581978 2.125 30 32 15
-0.13946718 -0.33519757 2.1210001 30 32 15
-0.13333797 -0.33441696 2.1160002 29 30 16
-0.12729594 -0.33379388 2.112 31 30 14
-0.12133293 -0.33332849 2.1090002 30 29 13
-0.11527635 -0.33254659 2.1040001 26 27 13
-0.10924677 -0.33176422 2.0990002 29 31 14
-0.10319491 -0.33082339 2.0930002 34 36 19
-0.097268708 -0.3301982 2.089 34 36 19
-0.091364093 -0.32957262 2.085 32 34 17
-0.085398927 -0.32863051 2.079 31 32 18
-0.079466365 -0.32768795 2.0730002 34 31 17
-0.073673196 -0.32721913 2.0700002 31 26 15
-0.068027601 -0.32738227 2.0710001 82 71 58
-0.062316071 -0.3272289 2.0700002 80 65 50
-0.056582429 -0.32691693 2.0680001 63 47 31
-0.050736461 -0.32581419 2.0610001 67 49 33
-0.044994343 -0.32518533 2.0570002 72 55 36
-0.039293133 -0.32471406 2.0540001 77 57 41
-0.033657394 -0.32471669 2.0540001 76 56 38
-0.028007889 -0.32456082 2.0530002 83 65 49
-0.022385564 -0.32472071 2.0540001 80 64 48
-0.016749512 -0.32472214 2.0540001 44 34 17
-0.011129631 -0.32519737 2.0570002 39 33 17
-0.0054905773 -0.32551417 2.059 36 35 21
0.0001597041 -0.32630485 2.0640001 34 37 23
0.0058317827 -0.32677889 2.0670002 40 43 31
0.011542564 -0.32788491 2.0740001 44 47 35
0.017275101 -0.32867435 2.079 44 47 35
0.023046065 -0.32962146 2.085 47 50 38
0.028836073 -0.33041003 2.0900002 45 47 37
0.034719575 -0.33183059 2.0990002 55 57 47
0.040671624 -0.33340877 2.1090002 57 62 51
0.046722446 -0.33530265 2.1210001 58 62 54
0.052789405 -0.33687997 2.131 65 69 62
0.058938555 -0.33861491 2.1420002 61 65 58
0.065117583 -0.3401913 2.1520002 61 65 58
0.071450241 -0.3422415 2.1650002 62 66 59
0.077782467 -0.34397504 2.1760001 65 69 62
0.08417476 -0.34570804 2.187 59 65 58
0.090792008 -0.34807292 2.2020001 62 68 61
0.097491212 -0.35043725 2.217 70 78 71
0.10450593 -0.35359141 2.237 101 109 102
-0.18919204 -0.3468475 2.158 77 85 78
-0.18370605 -0.34766406 2.1630001 44 52 44
-0.17728792 -0.34671217 2.1570001 41 46 34
-0.17074315 -0.34543836 2.1490002 38 41 27
-0.16401146 -0.34368181 2.138 34 38 21
-0.15763539 -0.34256783 2.131 35 37 19
-0.15143961 -0.34177494 2.1260002 33 37 20
-0.14540766 -0.34130305 2.1230001 32 34 17
-0.13926013 -0.3405093 2.118 32 34 16
-0.13307652 -0.33955425 2.112 30 32 15
-0.12710615 -0.33908123 2.1090002 31 33 16
-0.12115177 -0.3386077 2.1060002 33 32 16
-0.11532295 -0.33845529 2.105 29 30 16
-0.10923901 -0.33749861 2.0990002 28 29 15
-0.10323685 -0.33670223 2.0940001 28 30 13
-0.097354889 -0.33622703 2.0910001 30 32 15
-0.091489024 -0.33575141 2.0880001 26 30 13
-0.085516036 -0.33479294 2.082 31 33 16
-0.079537332 -0.33367327 2.075 32 31 17
-0.073703498 -0.33303556 2.0710001 33 29 18
-0.068022721 -0.33304065 2.0710001 31 22 9
-0.06237179 -0.33320618 2.072 82 69 54
-0.056660432 -0.33304971 2.0710001 64 48 32
-0.050855882 -0.33224949 2.066 64 46 30
-0.045056708 -0.33128807 2.0600002 74 54 38
-0.039366808 -0.33096948 2.0580001 74 54 38
-0.033720504 -0.33097216 2.0580001 72 54 38
-0.028060431 -0.33081359 2.0570002 76 60 44
-0.022394843 -0.33049372 2.0550001 58 44 27
-0.0167483 -0.33033437 2.0540001 39 33 16
-0.011128826 -0.33081785 2.0570002 34 31 15
-0.0054955138 -0.33146176 2.0610001 33 34 20
0.00015969254 -0.33194444 2.0640001 31 36 24
0.0058313613 -0.3324267 2.0670002 29 34 22
0.0115306 -0.33323017 2.072 40 45 33
0.017257236 -0.33403328 2.0770001 41 46 34
0.023033349 -0.33515757 2.0840001 43 48 36
0.028833993 -0.33612064 2.0900002 42 44 34
0.034667451 -0.33708325 2.0960002 50 52 42
0.040610839 -0.33868876 2.1060002 58 60 50
0.046652999 -0.34061542 2.118 58 62 55
0.05268652 -0.34205917 2.1270001 60 64 57
0.058879282 -0.34414575 2.1400001 59 63 56
0.064991869 -0.34542778 2.148 57 61 53
0.071412109 -0.34799582 2.164 61 65 57
0.077705391 -0.34959856 2.174 64 68 60
0.084168717 -0.35168323 2.187 70 76 68
0.090826742 -0.35424978 2.2030001 73 79 71
0.097748078 -0.35745907 2.223 59 67 60
0.10473204 -0.36050698 2.2420001 126 134 127
-0.18882826 -0.35208669 2.154 141 149 142
-0.18326862 -0.35275349 2.158 46 53 41
-0.17719334 -0.35243925 2.1560001 43 48 34
-0.17073119 -0.35130721 2.1490002 38 41 27
-0.16407663 -0.34968424 2.1390002 37 39 21
-0.15755032 -0.34822428 2.1300001 37 39 21
-0.15128642 -0.34725428 2.1240001 32 36 18
-0.14519189 -0.34661087 2.1200001 31 35 17
-0.13911875 -0.34596702 2.1160002 30 34 16
-0.13294105 -0.34499574 2.1100001 30 34 17
-0.12691627 -0.34435102 2.1060002 35 37 20
-0.12097052 -0.34386942 2.1030002 34 36 19
-0.11515033 -0.34371436 2.102 31 32 18
-0.10912707 -0.34290487 2.0970001 32 33 19
-0.10322943 -0.34242198 2.0940001 30 32 15
-0.097347856 -0.34193864 2.0910001 26 28 11
-0.091482408 -0.34145492 2.0880001 26 27 13
-0.085592002 -0.34080723 2.0840001 29 31 14
-0.07964655 -0.33983201 2.0780001 32 31 17
-0.073769331 -0.33901995 2.0730002 35 32 18
-0.068017773 -0.338698 2.0710001 32 28 14
-0.06233716 -0.3387028 2.0710001 48 39 26
-0.056628954 -0.33854359 2.0700002 74 59 44
-0.050876789 -0.33805686 2.0670002 64 48 32
-0.045097161 -0.33724263 2.062 74 56 40
-0.039421316 -0.33708218 2.0610001 70 54 38
-0.03375081 -0.33692133 2.0600002 69 55 38
-0.02807202 -0.33659646 2.0580001 59 47 30
-0.022404101 -0.3362712 2.056 37 29 13
-0.016763382 -0.33627263 2.056 32 29 15
-0.011128012 -0.33643726 2.0570002 29 30 16
-0.0054924451 -0.33692852 2.0600002 28 31 19
0.00015968084 -0.33758295 2.0640001 29 32 20
0.0058337552 -0.33823696 2.0680001 33 36 24
0.011524192 -0.338727 2.0710001 38 41 29
0.017255975 -0.33970731 2.0770001 40 45 33
0.023031663 -0.34085068 2.0840001 41 46 34
0.02885947 -0.34215721 2.092 41 46 35
0.034697995 -0.34313622 2.098 41 45 37
0.040607873 -0.34444189 2.1060002 47 51 43
0.046583518 -0.34591064 2.115 52 53 47
0.05263314 -0.34754249 2.125 55 57 49
0.058764953 -0.34933749 2.1360002 57 61 53
0.064866126 -0.35064131 2.1440001 62 64 54
0.07124193 -0.35308951 2.1590002 58 63 52
0.077521056 -0.35471949 2.1690001 59 64 53
0.08416263 -0.35765731 2.187 71 78 67
0.091108754 -0.36141229 2.21 75 82 71
0.098620385 -0.36680198 2.243 67 75 67
0.10528503 -0.36859345 2.2540002 140 148 141
-0.18934093 -0.35896474 2.1600001 177 185 178
-0.18317081 -0.35847935 2.1570001 34 41 30
-0.17701647 -0.35799351 2.154 42 47 35
-0.17063965 -0.35700867 2.148 39 42 28
-0.16406499 -0.35552475 2.1390002 38 40 22
-0.15753908 -0.35404032 2.1300001 35 37 19
-0.15120441 -0.3528879 2.1230001 32 36 18
-0.14518148 -0.35239983 2.1200001 32 34 16
-0.13897727 -0.35141271 2.1140001 29 33 15
-0.13286845 -0.35059139 2.1090002 28 32 14
-0.12678659 -0.34976959 2.1040001 30 34 17
-0.12084673 -0.34927988 2.1010001 31 33 16
-0.11497768 -0.34895599 2.0990002 31 32 18
-0.10906713 -0.34846538 2.0960002 31 32 18
-0.10317263 -0.34797436 2.0930002 30 31 17
-0.097294211 -0.34748289 2.0900002 29 30 16
-0.091431923 -0.34699106 2.0870001 29 30 16
-0.085626811 -0.34666502 2.085 28 30 13
-0.079794027 -0.34617227 2.082 27 28 14
-0.073906243 -0.34534663 2.0770001 28 27 13
-0.06814415 -0.34501931 2.075 34 31 17
-0.062362667 -0.34452528 2.072 34 27 14
-0.056597427 -0.34403086 2.069 49 36 21
-0.050823815 -0.34336972 2.0650001 69 54 39
-0.045115709 -0.3430407 2.0630002 70 56 39
-0.039456662 -0.34304389 2.0630002 66 52 35
-0.033764701 -0.34271401 2.0610001 46 36 19
-0.028097227 -0.34255004 2.0600002 36 30 14
-0.022435134 -0.34238559 2.059 34 30 14
-0.016786601 -0.34238705 2.059 33 32 18
-0.011138007 -0.34238806 2.059 29 30 18
-0.0054973704 -0.34288755 2.062 29 30 18
0.00015982374 -0.34355289 2.066 28 31 19
0.005841786 -0.34438416 2.0710001 31 34 22
0.011528904 -0.34454978 2.072 33 36 24
0.017238082 -0.34504759 2.075 37 42 30
0.022996811 -0.34604383 2.0810001 42 47 35
0.028815957 -0.34737217 2.089 40 45 34
0.034645818 -0.34836754 2.095 40 45 34
0.040547036 -0.34969506 2.1030002 43 48 37
0.04653604 -0.35135463 2.1130002 51 53 45
0.052579734 -0.35301378 2.1230001 50 52 44
0.058678098 -0.35467246 2.1330001 55 59 51
0.064770602 -0.35599813 2.141 57 59 49
0.07103873 -0.35798842 2.1530001 56 58 48
0.077300958 -0.35964569 2.1630001 63 68 57
0.084156461 -0.36363018 2.187 73 80 69
0.091844104 -0.37044072 2.2280002 70 76 68
0.099448517 -0.37608668 2.2620001 59 67 59
0.10583783 -0.37674418 2.266 154 162 155
0.10977626 -0.36908844 2.22 130 138 131
-0.18845101 -0.36317182 2.1500001 179 186 182
-0.18273321 -0.36352292 2.1520002 46 54 46
-0.17683949 -0.36353582 2.1520002 45 52 41
-0.17046854 -0.36253467 2.1460001 38 43 31
-0.1641299 -0.36153308 2.1400001 36 38 20
-0.15782356 -0.36053106 2.1340001 33 35 17
-0.15154956 -0.35952857 2.128 35 37 20
-0.14530793 -0.35852566 2.1220002 30 32 14
-0.13903292 -0.35735324 2.115 33 35 17
-0.13298479 -0.35668731 2.1110001 33 35 17
-0.12689787 -0.35585204 2.1060002 32 34 16
-0.12095293 -0.35535422 2.1030002 32 34 16
-0.11491448 -0.354518 2.098 29 31 14
-0.10900707 -0.35401925 2.095 29 31 14
-0.10311575 -0.35352015 2.092 29 30 16
-0.097287059 -0.35318959 2.0900002 31 32 18
-0.09142518 -0.35268965 2.0870001 27 28 14
-0.08562047 -0.35235816 2.085 28 29 15
-0.079788119 -0.35185733 2.082 27 29 12
-0.073936351 -0.35118705 2.0780001 31 30 14
-0.068171941 -0.35085437 2.0760002 31 28 14
-0.06235804 -0.35018319 2.072 30 27 11
-0.056593213 -0.34968057 2.069 33 29 13
-0.050844643 -0.34917757 2.066 41 35 19
-0.045156084 -0.34901217 2.0650001 59 55 39
-0.039453723 -0.34867734 2.0630002 43 39 23
-0.033762179 -0.34834203 2.0610001 33 30 14
-0.028108766 -0.34834433 2.0610001 32 31 17
-0.022455251 -0.34834623 2.0610001 31 30 16
-0.016809806 -0.34851676 2.062 28 29 17
-0.011147995 -0.34834877 2.0610001 27 28 16
-0.005499626 -0.34868747 2.0630002 30 31 17
0.00015988917 -0.34936371 2.0670002 28 29 15
0.0058413493 -0.35003954 2.0710001 29 32 18
0.011539171 -0.35054597 2.0740001 32 35 21
0.017245103 -0.35088295 2.0760002 38 43 29
0.023006143 -0.35189551 2.082 43 48 34
0.028813804 -0.35307667 2.089 41 46 34
0.034643237 -0.35408843 2.095 40 45 33
0.040544014 -0.35543773 2.1030002 37 42 30
0.046488527 -0.35678658 2.1110001 44 49 38
0.052501529 -0.35830399 2.1200001 47 51 43
0.058536194 -0.35965192 2.128 54 59 48
0.064675033 -0.36133739 2.138 52 57 46
0.070934482 -0.36336043 2.1500001 61 63 53
0.077402435 -0.36605901 2.1660001 58 63 52
0.084688924 -0.37196794 2.2010002 70 74 66
0.092579275 -0.37956628 2.2460001 69 75 67
0.099660985 -0.38310802 2.2670002 58 64 57
0.10583003 -0.38293141 2.266 150 158 151
0.10922429 -0.37329113 2.2090001 116 123 119
-0.18677224 -0.36577839 2.131 171 180 175
-0.18255027 -0.36905307 2.1500001 82 90 83
-0.17658024 -0.3688944 2.1490002 40 48 40
-0.17037681 -0.36822033 2.1450002 35 38 24
-0.1640413 -0.36720246 2.1390002 33 37 20
-0.1578121 -0.36635587 2.1340001 31 35 18
-0.15160973 -0.36550879 2.1290002 32 34 17
-0.14543425 -0.36466125 2.1240001 32 34 17
-0.1391542 -0.3634699 2.1170001 32 34 17
-0.133038 -0.36262143 2.112 34 36 18
-0.12700902 -0.36194429 2.108 34 36 18
-0.12105902 -0.36143833 2.105 33 35 17
-0.11496074 -0.36041689 2.0990002 30 32 15
-0.108999 -0.35973835 2.095 30 32 15
-0.10300952 -0.3588877 2.0900002 27 28 14
-0.097186722 -0.35855171 2.0880001 28 29 15
-0.091418363 -0.35838708 2.0870001 29 30 16
-0.085614093 -0.35805026 2.085 31 32 18
-0.079820476 -0.35771298 2.0830002 31 33 16
-0.073930815 -0.35686007 2.0780001 27 29 12
-0.068133987 -0.35635027 2.075 31 30 14
-0.062323272 -0.35566825 2.0710001 31 28 12
-0.056588966 -0.35532922 2.069 33 30 14
-0.050840821 -0.35481805 2.066 29 26 10
-0.045152687 -0.35464996 2.0650001 34 31 17
-0.039431624 -0.35413793 2.062 29 26 12
-0.033759635 -0.35396895 2.0610001 30 29 15
-0.028106647 -0.3539713 2.0610001 30 31 17
-0.02246445 -0.35414496 2.062 30 31 17
-0.016808536 -0.35414642 2.062 28 29 17
-0.011157971 -0.35431924 2.0630002 29 30 18
-0.005504542 -0.35466337 2.0650001 30 31 17
0.00016003178 -0.35535058 2.069 30 31 17
0.0058437292 -0.35586563 2.072 30 33 19
0.0115383 -0.35620844 2.0740001 32 35 21
0.017235491 -0.35637909 2.075 37 42 28
0.022982309 -0.35723633 2.0800002 42 47 33
0.028770261 -0.35826486 2.0860002 42 47 35
0.034591019 -0.35929292 2.092 40 45 33
0.040502403 -0.36083582 2.1010001 38 43 31
0.046463009 -0.36237821 2.1100001 45 50 38
0.052448057 -0.3637484 2.118 49 54 43
0.058449283 -0.3649464 2.125 52 57 46
0.064549193 -0.36648741 2.1340001 53 57 49
0.070896186 -0.3690584 2.1490002 55 59 51
0.077789694 -0.37386131 2.177 64 68 60
0.085529037 -0.38175479 2.223 67 71 64
0.093025751 -0.38758686 2.2570002 51 55 48
0.09969753 -0.38946861 2.2680001 52 56 49
0.10563536 -0.38843063 2.2620001 115 120 116
0.10882065 -0.37794781 2.2010002 103 110 106
-0.18228231 -0.37439677 2.1470001 160 168 161
-0.1764852 -0.37458423 2.148 32 40 33
-0.1701261 -0.37355062 2.1420002 34 39 27
-0.1640293 -0.37303969 2.1390002 36 39 25
-0.15787445 -0.37235388 2.135 32 35 21
-0.15174098 -0.37166774 2.131 32 33 19
-0.14535505 -0.37028342 2.1230001 34 36 19
-0.1391439 -0.36924747 2.1170001 35 37 20
-0.13302813 -0.36838546 2.112 32 34 16
-0.12705983 -0.36787194 2.1090002 33 35 17
-0.1209925 -0.36700901 2.1040001 34 36 18
-0.11495216 -0.36614567 2.0990002 32 34 16
-0.10893883 -0.36528188 2.0940001 32 34 17
-0.1030018 -0.36459208 2.0900002 28 29 15
-0.097179435 -0.36425075 2.0880001 27 29 12
-0.09132389 -0.36373448 2.085 28 29 15
-0.085566588 -0.36356676 2.0840001 29 30 16
-0.079737827 -0.36304963 2.0810001 29 31 14
-0.073854089 -0.36218315 2.0760002 30 31 17
-0.068030328 -0.36149067 2.072 29 30 16
-0.062258366 -0.36097226 2.069 31 30 14
-0.056557328 -0.36080229 2.0680001 31 30 14
-0.050836962 -0.36045739 2.066 31 30 16
-0.045127392 -0.36011219 2.0640001 27 28 14
-0.039428625 -0.35976642 2.062 31 32 18
-0.033757068 -0.35959476 2.0610001 30 31 17
-0.028118145 -0.35977161 2.062 28 29 15
-0.022462741 -0.35977352 2.062 29 30 16
-0.016807256 -0.35977501 2.062 28 29 15
-0.011151711 -0.35977608 2.062 28 29 15
-0.0055041225 -0.36030018 2.0650001 30 31 17
0.00015994224 -0.36082384 2.0680001 30 31 17
0.005840464 -0.36134705 2.0710001 29 32 18
0.01153742 -0.36186978 2.0740001 34 37 23
0.017242489 -0.36221772 2.0760002 36 39 25
0.022991607 -0.36308852 2.0810001 45 48 34
0.028754277 -0.36378443 2.085 46 49 35
0.034571853 -0.36482885 2.0910001 47 50 36
0.040480051 -0.36639631 2.1000001 42 45 31
0.046393424 -0.3676143 2.1070001 46 51 39
0.052320268 -0.36865735 2.1130002 48 53 41
0.058307335 -0.36987442 2.1200001 49 54 43
0.064423323 -0.37161443 2.1300001 55 59 51
0.071055748 -0.37579644 2.154 61 65 57
0.078569874 -0.38364169 2.1990001 63 67 59
0.086292021 -0.39131165 2.243 48 52 45
0.09326601 -0.39479396 2.263 49 53 46
0.099646077 -0.39548454 2.2670002 79 83 76
0.10586092 -0.39547679 2.2670002 116 122 115
-0.18201432 -0.37972313 2.1440001 180 187 184
-0.17589717 -0.37920493 2.141 22 29 25
-0.16963705 -0.37833211 2.1360002 48 55 44
-0.16363378 -0.37799019 2.1340001 42 47 35
-0.15749307 -0.37729362 2.1300001 39 42 28
-0.1513025 -0.37641943 2.125 39 42 28
-0.14507037 -0.37536764 2.1190002 39 40 26
-0.13900205 -0.37466967 2.115 35 36 22
-0.13295521 -0.37397128 2.1110001 33 35 18
-0.12692982 -0.37327245 2.1070001 34 36 19
-0.1208684 -0.37239599 2.102 32 34 16
-0.11488873 -0.3716962 2.098 33 35 17
-0.10887858 -0.37081888 2.0930002 31 33 16
-0.10299402 -0.37029541 2.0900002 30 32 15
-0.097032443 -0.36941713 2.085 29 31 14
-0.091185562 -0.36889273 2.082 27 28 14
-0.08543691 -0.36872232 2.0810001 27 30 16
-0.079655126 -0.3683742 2.079 29 33 16
-0.073848456 -0.36784858 2.0760002 29 33 16
-0.068025135 -0.36714521 2.072 29 30 16
-0.062253609 -0.36661863 2.069 30 32 15
-0.056525651 -0.36626881 2.0670002 27 28 14
-0.050808467 -0.36591852 2.0650001 29 30 16
-0.045123931 -0.36574501 2.0640001 30 32 15
-0.039444726 -0.36557108 2.0630002 32 34 17
-0.033803612 -0.36575112 2.0640001 29 31 14
-0.028143257 -0.3657535 2.0640001 28 30 13
-0.022461016 -0.36540103 2.062 28 30 13
-0.016805965 -0.36540255 2.062 29 30 16
-0.011156264 -0.36558086 2.0630002 31 32 18
-0.0055063642 -0.36611307 2.066 29 30 16
0.00015992996 -0.36646771 2.0680001 30 33 19
0.0058371946 -0.36682194 2.0700002 30 33 19
0.01153097 -0.36735287 2.0730002 30 33 21
0.017232856 -0.36770615 2.075 38 41 29
0.022978794 -0.36859071 2.0800002 42 45 33
0.02875207 -0.36947468 2.085 45 48 36
0.034602266 -0.3708899 2.0930002 45 47 37
0.040496219 -0.37230465 2.1010001 44 47 35
0.046411879 -0.37354168 2.108 46 49 37
0.052291501 -0.37424669 2.112 47 52 40
0.058247872 -0.37530568 2.118 47 52 41
0.064539373 -0.37813607 2.1340001 49 54 43
0.071512118 -0.38415551 2.1680002 49 53 45
0.079528518 -0.39442685 2.2260001 46 52 44
0.086747073 -0.39955899 2.2550001 36 40 32
0.093506187 -0.4020327 2.2690001 76 82 75
0.099858254 -0.40255684 2.2720001 65 71 64
-0.18106709 -0.38359317 2.1330001 167 175 172
-0.17588416 -0.38504517 2.141 64 71 67
-0.16946562 -0.38379908 2.1340001 42 50 42
-0.16346827 -0.38345185 2.1320002 42 49 38
-0.15733342 -0.3827444 2.128 43 48 36
-0.15107758 -0.38167682 2.1220002 38 41 27
-0.14485411 -0.38060877 2.1160002 38 39 25
-0.13872872 -0.37972006 2.1110001 38 39 25
-0.13269326 -0.37901083 2.1070001 36 38 21
-0.1267395 -0.37848103 2.1040001 37 39 22
-0.12068675 -0.37759104 2.0990002 38 40 23
-0.11482526 -0.37724021 2.0970001 30 34 16
-0.10876626 -0.37616935 2.0910001 29 33 16
-0.10288759 -0.37563777 2.0880001 31 33 16
-0.096885428 -0.37456599 2.082 31 33 16
-0.091047198 -0.37403345 2.079 28 30 13
-0.085348248 -0.37404028 2.079 27 31 14
-0.079534076 -0.3735069 2.0760002 28 32 15
-0.073771633 -0.37315297 2.0740001 28 32 15
-0.068019904 -0.37279859 2.072 28 32 15
-0.062308982 -0.37262371 2.0710001 29 30 16
-0.056548636 -0.37208858 2.0680001 29 30 16
-0.050829142 -0.37173286 2.066 27 28 14
-0.0451423 -0.37155664 2.0650001 28 30 13
-0.039460793 -0.37138003 2.0640001 28 30 13
-0.033800993 -0.37138286 2.0640001 28 30 13
-0.028154708 -0.37156522 2.0650001 29 31 14
-0.022470167 -0.37120736 2.0630002 28 30 13
-0.016812811 -0.37120885 2.0630002 29 30 16
-0.011155397 -0.37120995 2.0630002 30 31 17
-0.0055059376 -0.37175038 2.066 29 30 16
0.00015984022 -0.37193054 2.0670002 31 32 18
0.0058367415 -0.37247011 2.0700002 29 32 18
0.011524514 -0.37282932 2.072 31 34 22
0.017231518 -0.37336797 2.075 36 39 27
0.022977013 -0.37426612 2.0800002 40 43 31
0.028763631 -0.37534371 2.0860002 42 45 33
0.034632649 -0.37696064 2.095 44 47 35
0.040493082 -0.37803733 2.1010001 43 46 34
0.04634225 -0.37875366 2.105 44 47 35
0.05218843 -0.37928963 2.108 40 43 31
0.058215875 -0.3809047 2.1170001 40 45 34
0.064806573 -0.38557804 2.1430001 39 44 33
0.07246311 -0.39528853 2.197 42 47 36
0.080236882 -0.40409875 2.2460001 29 35 27
0.08716353 -0.40769067 2.266 33 39 31
0.093663834 -0.40894306 2.273 121 127 120
0.099542975 -0.40749633 2.2650001 126 134 127
-0.18147804 -0.39032322 2.138 171 178 180
-0.17562458 -0.39033657 2.138 164 172 171
-0.16977057 -0.39034954 2.138 96 104 97
-0.16337931 -0.38908404 2.131 19 27 20
-0.15717372 -0.38818321 2.1260002 30 35 24
